VERSION 0.7
FIELDS x y z rgb
SIZE 4 4 4 4
TYPE F F F F
COUNT 1 1 1 1
WIDTH 392
HEIGHT 1
VIEWPOINT 0 0 0 1 0 0 0
POINTS 392
DATA ascii 
-11.31084 -2.953028 -24 4.2108e+06
-11.33036 -2.582835 -24 4.2108e+06
-11.3499 -2.211461 -24 4.2108e+06
-11.36954 -1.838922 -24 4.2108e+06
-11.3892 -1.465194 -24 4.2108e+06
-11.40896 -1.090288 -24 4.2108e+06
-11.42875 -0.7141817 -24 4.2108e+06
-11.44864 -0.3368828 -24 4.2108e+06
-11.46855 0.04162216 -24 4.2108e+06
-11.48857 0.4213347 -24 4.2108e+06
-11.5086 0.8022622 -24 4.2108e+06
-11.52875 1.184412 -24 4.2108e+06
-11.54892 1.567786 -24 4.2108e+06
-11.5692 1.952397 -24 4.2108e+06
-11.58949 2.33824 -24 4.2108e+06
-11.6099 2.725335 -24 4.2108e+06
-11.63033 3.113673 -24 4.2108e+06
-11.65087 3.503276 -24 4.2108e+06
-11.67143 3.894132 -24 4.2108e+06
-11.6921 4.286269 -24 4.2108e+06
-11.7128 4.67967 -24 4.2108e+06
-11.73361 5.074364 -24 4.2108e+06
-10.67695 -2.953028 -24 4.2108e+06
-10.69547 -2.582835 -24 4.2108e+06
-10.714 -2.211461 -24 4.2108e+06
-10.73264 -1.838922 -24 4.2108e+06
-10.75129 -1.465194 -24 4.2108e+06
-10.77004 -1.090288 -24 4.2108e+06
-10.78881 -0.7141817 -24 4.2108e+06
-10.80768 -0.3368828 -24 4.2108e+06
-10.82657 0.04162216 -24 4.2108e+06
-10.84556 0.4213347 -24 4.2108e+06
-10.86457 0.8022622 -24 4.2108e+06
-10.88369 1.184412 -24 4.2108e+06
-10.90282 1.567786 -24 4.2108e+06
-10.92206 1.952397 -24 4.2108e+06
-10.94131 2.33824 -24 4.2108e+06
-10.96067 2.725335 -24 4.2108e+06
-10.98005 3.113673 -24 4.2108e+06
-10.99954 3.503276 -24 4.2108e+06
-11.01905 3.894132 -24 4.2108e+06
-11.03866 4.286269 -24 4.2108e+06
-11.05829 4.67967 -24 4.2108e+06
-11.07804 5.074364 -24 4.2108e+06
-11.0978 5.470329 -24 4.2108e+06
-11.11767 5.867608 -24 4.2108e+06
-11.13756 6.266167 -24 4.2108e+06
-11.15756 6.666053 -24 4.2108e+06
-10.04306 -2.953028 -24 4.2108e+06
-10.06058 -2.582835 -24 4.2108e+06
-10.07811 -2.211461 -24 4.2108e+06
-10.09574 -1.838922 -24 4.2108e+06
-10.11338 -1.465194 -24 4.2108e+06
-10.13112 -1.090288 -24 4.2108e+06
-10.14887 -0.7141817 -24 4.2108e+06
-10.16673 -0.3368831 -24 4.2108e+06
-10.18459 0.04162204 -24 4.2108e+06
-10.20256 0.4213347 -24 4.2108e+06
-10.22054 0.8022622 -24 4.2108e+06
-10.23862 1.184412 -24 4.2108e+06
-10.25672 1.567786 -24 4.2108e+06
-10.27492 1.952397 -24 4.2108e+06
-10.29313 2.33824 -24 4.2108e+06
-10.31145 2.725335 -24 4.2108e+06
-10.32978 3.113673 -24 4.2108e+06
-10.34822 3.503276 -24 4.2108e+06
-10.36667 3.894132 -24 4.2108e+06
-10.38522 4.286269 -24 4.2108e+06
-10.40379 4.679669 -24 4.2108e+06
-10.42247 5.074364 -24 4.2108e+06
-10.44116 5.47033 -24 4.2108e+06
-10.45996 5.867608 -24 4.2108e+06
-10.47877 6.266166 -24 4.2108e+06
-10.49769 6.666053 -24 4.2108e+06
-9.409176 -2.953028 -24 4.2108e+06
-9.425692 -2.582835 -24 4.2108e+06
-9.442219 -2.211461 -24 4.2108e+06
-9.458839 -1.838922 -24 4.2108e+06
-9.475473 -1.465194 -24 4.2108e+06
-9.492199 -1.090288 -24 4.2108e+06
-9.508938 -0.7141817 -24 4.2108e+06
-9.525772 -0.3368831 -24 4.2108e+06
-9.542618 0.04162204 -24 4.2108e+06
-9.559557 0.4213347 -24 4.2108e+06
-9.576511 0.8022622 -24 4.2108e+06
-9.593561 1.184412 -24 4.2108e+06
-9.610622 1.567786 -24 4.2108e+06
-9.627781 1.952397 -24 4.2108e+06
-9.644955 2.33824 -24 4.2108e+06
-9.662224 2.725335 -24 4.2108e+06
-9.679508 3.113673 -24 4.2108e+06
-9.69689 3.503276 -24 4.2108e+06
-9.714285 3.894132 -24 4.2108e+06
-9.731779 4.286269 -24 4.2108e+06
-9.749289 4.679669 -24 4.2108e+06
-9.766897 5.074364 -24 4.2108e+06
-9.784521 5.47033 -24 4.2108e+06
-9.802244 5.867608 -24 4.2108e+06
-9.819984 6.266166 -24 4.2108e+06
-9.837824 6.666053 -24 4.2108e+06
-8.775286 -2.953028 -24 4.2108e+06
-8.7908 -2.582835 -24 4.2108e+06
-8.806326 -2.211461 -24 4.2108e+06
-8.821939 -1.838922 -24 4.2108e+06
-8.837564 -1.465194 -24 4.2108e+06
-8.853277 -1.090288 -24 4.2108e+06
-8.869003 -0.7141817 -24 4.2108e+06
-8.884815 -0.3368828 -24 4.2108e+06
-8.900639 0.04162216 -24 4.2108e+06
-8.916553 0.4213347 -24 4.2108e+06
-8.93248 0.8022622 -24 4.2108e+06
-8.948496 1.184412 -24 4.2108e+06
-8.964525 1.567786 -24 4.2108e+06
-8.980642 1.952397 -24 4.2108e+06
-8.996777 2.33824 -24 4.2108e+06
-9.012999 2.725335 -24 4.2108e+06
-9.029234 3.113673 -24 4.2108e+06
-9.045563 3.503276 -24 4.2108e+06
-9.061905 3.894132 -24 4.2108e+06
-9.078339 4.286269 -24 4.2108e+06
-9.094786 4.67967 -24 4.2108e+06
-9.111328 5.074364 -24 4.2108e+06
-9.127882 5.470329 -24 4.2108e+06
-9.144533 5.867608 -24 4.2108e+06
-9.161198 6.266166 -24 4.2108e+06
-9.177956 6.666052 -24 4.2108e+06
-8.141396 -2.953027 -24 4.2108e+06
-8.15591 -2.582835 -24 4.2108e+06
-8.170435 -2.211461 -24 4.2108e+06
-8.185041 -1.838922 -24 4.2108e+06
-8.199657 -1.465194 -24 4.2108e+06
-8.214355 -1.090288 -24 4.2108e+06
-8.229067 -0.7141817 -24 4.2108e+06
-8.243858 -0.3368831 -24 4.2108e+06
-8.258663 0.04162216 -24 4.2108e+06
-8.27355 0.4213347 -24 4.2108e+06
-8.28845 0.8022622 -24 4.2108e+06
-8.303432 1.184412 -24 4.2108e+06
-8.318426 1.567786 -24 4.2108e+06
-8.333504 1.952397 -24 4.2108e+06
-8.348597 2.33824 -24 4.2108e+06
-8.363773 2.725335 -24 4.2108e+06
-8.378962 3.113673 -24 4.2108e+06
-8.394236 3.503276 -24 4.2108e+06
-8.409523 3.894132 -24 4.2108e+06
-8.424896 4.286269 -24 4.2108e+06
-8.440283 4.67967 -24 4.2108e+06
-8.455759 5.074364 -24 4.2108e+06
-8.471245 5.47033 -24 4.2108e+06
-8.48682 5.867608 -24 4.2108e+06
-8.502409 6.266166 -24 4.2108e+06
-8.518087 6.666053 -24 4.2108e+06
-7.507508 -2.953028 -24 4.2108e+06
-7.52102 -2.582835 -24 4.2108e+06
-7.534544 -2.211461 -24 4.2108e+06
-7.548142 -1.838922 -24 4.2108e+06
-7.561751 -1.465194 -24 4.2108e+06
-7.575437 -1.090288 -24 4.2108e+06
-7.589132 -0.7141817 -24 4.2108e+06
-7.602904 -0.3368831 -24 4.2108e+06
-7.616687 0.04162204 -24 4.2108e+06
-7.630547 0.4213347 -24 4.2108e+06
-7.644419 0.8022622 -24 4.2108e+06
-7.658369 1.184412 -24 4.2108e+06
-7.672328 1.567786 -24 4.2108e+06
-7.686368 1.952397 -24 4.2108e+06
-7.700418 2.338241 -24 4.2108e+06
-7.714548 2.725335 -24 4.2108e+06
-7.72869 3.113673 -24 4.2108e+06
-7.74291 3.503276 -24 4.2108e+06
-7.757143 3.894132 -24 4.2108e+06
-7.771457 4.286269 -24 4.2108e+06
-7.785783 4.67967 -24 4.2108e+06
-7.80019 5.074364 -24 4.2108e+06
-7.814608 5.470329 -24 4.2108e+06
-7.82911 5.867608 -24 4.2108e+06
-7.843624 6.266166 -24 4.2108e+06
-7.85822 6.666053 -24 4.2108e+06
-6.873617 -2.953028 -24 4.2108e+06
-6.886129 -2.582835 -24 4.2108e+06
-6.898651 -2.211461 -24 4.2108e+06
-6.911242 -1.838922 -24 4.2108e+06
-6.923842 -1.465194 -24 4.2108e+06
-6.936514 -1.090288 -24 4.2108e+06
-6.949195 -0.7141817 -24 4.2108e+06
-6.961948 -0.3368831 -24 4.2108e+06
-6.974709 0.04162216 -24 4.2108e+06
-6.987544 0.4213347 -24 4.2108e+06
-7.000387 0.8022622 -24 4.2108e+06
-7.013303 1.184412 -24 4.2108e+06
-7.026229 1.567786 -24 4.2108e+06
-7.039228 1.952397 -24 4.2108e+06
-7.052238 2.33824 -24 4.2108e+06
-7.06532 2.725335 -24 4.2108e+06
-7.078414 3.113673 -24 4.2108e+06
-7.091584 3.503276 -24 4.2108e+06
-7.104762 3.894132 -24 4.2108e+06
-7.118015 4.286269 -24 4.2108e+06
-7.131279 4.679669 -24 4.2108e+06
-7.144619 5.074364 -24 4.2108e+06
-7.157971 5.47033 -24 4.2108e+06
-7.171397 5.867608 -24 4.2108e+06
-7.184836 6.266167 -24 4.2108e+06
-7.198349 6.666052 -24 4.2108e+06
-6.239728 -2.953028 -24 4.2108e+06
-6.251238 -2.582834 -24 4.2108e+06
-6.262759 -2.211461 -24 4.2108e+06
-6.274342 -1.838922 -24 4.2108e+06
-6.285935 -1.465194 -24 4.2108e+06
-6.297593 -1.090288 -24 4.2108e+06
-6.309259 -0.7141817 -24 4.2108e+06
-6.320992 -0.3368828 -24 4.2108e+06
-6.332732 0.04162216 -24 4.2108e+06
-6.34454 0.4213347 -24 4.2108e+06
-6.356356 0.8022622 -24 4.2108e+06
-6.368238 1.184412 -24 4.2108e+06
-6.38013 1.567786 -24 4.2108e+06
-6.39209 1.952397 -24 4.2108e+06
-6.404059 2.338241 -24 4.2108e+06
-6.416095 2.725335 -24 4.2108e+06
-6.428142 3.113673 -24 4.2108e+06
-6.440256 3.503276 -24 4.2108e+06
-6.452381 3.894132 -24 4.2108e+06
-6.464573 4.286269 -24 4.2108e+06
-6.476777 4.679669 -24 4.2108e+06
-6.489048 5.074364 -24 4.2108e+06
-6.501332 5.47033 -24 4.2108e+06
-6.513686 5.867608 -24 4.2108e+06
-6.526049 6.266166 -24 4.2108e+06
-6.538483 6.666053 -24 4.2108e+06
-5.605838 -2.953028 -24 4.2108e+06
-5.616348 -2.582835 -24 4.2108e+06
-5.626867 -2.211461 -24 4.2108e+06
-5.637443 -1.838923 -24 4.2108e+06
-5.648027 -1.465194 -24 4.2108e+06
-5.658672 -1.090288 -24 4.2108e+06
-5.669324 -0.7141817 -24 4.2108e+06
-5.680035 -0.3368831 -24 4.2108e+06
-5.690756 0.04162192 -24 4.2108e+06
-5.701536 0.4213347 -24 4.2108e+06
-5.712325 0.8022622 -24 4.2108e+06
-5.723174 1.184412 -24 4.2108e+06
-5.734033 1.567786 -24 4.2108e+06
-5.744952 1.952397 -24 4.2108e+06
-5.75588 2.33824 -24 4.2108e+06
-5.766869 2.725335 -24 4.2108e+06
-5.777868 3.113673 -24 4.2108e+06
-5.788929 3.503276 -24 4.2108e+06
-5.799999 3.894132 -24 4.2108e+06
-5.811132 4.286269 -24 4.2108e+06
-5.822275 4.67967 -24 4.2108e+06
-5.83348 5.074364 -24 4.2108e+06
-5.844694 5.470329 -24 4.2108e+06
-5.855973 5.867608 -24 4.2108e+06
-5.867262 6.266167 -24 4.2108e+06
-5.878614 6.666052 -24 4.2108e+06
-4.971949 -2.953028 -24 4.2108e+06
-4.981458 -2.582835 -24 4.2108e+06
-4.990974 -2.211461 -24 4.2108e+06
-5.000544 -1.838922 -24 4.2108e+06
-5.01012 -1.465194 -24 4.2108e+06
-5.019751 -1.090288 -24 4.2108e+06
-5.029388 -0.7141817 -24 4.2108e+06
-5.03908 -0.3368831 -24 4.2108e+06
-5.048779 0.04162216 -24 4.2108e+06
-5.058532 0.4213347 -24 4.2108e+06
-5.068294 0.8022622 -24 4.2108e+06
-5.07811 1.184412 -24 4.2108e+06
-5.087934 1.567786 -24 4.2108e+06
-5.097813 1.952397 -24 4.2108e+06
-5.1077 2.33824 -24 4.2108e+06
-5.117643 2.725335 -24 4.2108e+06
-5.127595 3.113673 -24 4.2108e+06
-5.137603 3.503276 -24 4.2108e+06
-5.147619 3.894132 -24 4.2108e+06
-5.157691 4.286268 -24 4.2108e+06
-5.167772 4.67967 -24 4.2108e+06
-5.17791 5.074364 -24 4.2108e+06
-5.188057 5.47033 -24 4.2108e+06
-5.198261 5.867608 -24 4.2108e+06
-5.208475 6.266166 -24 4.2108e+06
-5.218746 6.666053 -24 4.2108e+06
-4.338059 -2.953027 -24 4.2108e+06
-4.346567 -2.582835 -24 4.2108e+06
-4.355083 -2.211461 -24 4.2108e+06
-4.363644 -1.838923 -24 4.2108e+06
-4.372213 -1.465194 -24 4.2108e+06
-4.380829 -1.090288 -24 4.2108e+06
-4.389452 -0.7141817 -24 4.2108e+06
-4.398124 -0.3368831 -24 4.2108e+06
-4.406802 0.04162216 -24 4.2108e+06
-4.415529 0.4213347 -24 4.2108e+06
-4.424263 0.8022622 -24 4.2108e+06
-4.433045 1.184412 -24 4.2108e+06
-4.441835 1.567786 -24 4.2108e+06
-4.450675 1.952397 -24 4.2108e+06
-4.459521 2.33824 -24 4.2108e+06
-4.468418 2.725335 -24 4.2108e+06
-4.477322 3.113673 -24 4.2108e+06
-4.486276 3.503276 -24 4.2108e+06
-4.495237 3.894132 -24 4.2108e+06
-4.50425 4.286269 -24 4.2108e+06
-4.51327 4.67967 -24 4.2108e+06
-4.52234 5.074364 -24 4.2108e+06
-4.53142 5.47033 -24 4.2108e+06
-4.54055 5.867608 -24 4.2108e+06
-4.549687 6.266166 -24 4.2108e+06
-4.558878 6.666052 -24 4.2108e+06
-3.747169 -2.986248 -23.92701 4.2108e+06
-3.747169 -2.607453 -23.93985 4.2108e+06
-3.747169 -2.228658 -23.95266 4.2108e+06
-3.747169 -1.849864 -23.9655 4.2108e+06
-3.747169 -1.471069 -23.9783 4.2108e+06
-3.747169 -1.092275 -23.99114 4.2108e+06
-3.749517 -0.7141817 -24 4.2108e+06
-3.757169 -0.3368828 -24 4.2108e+06
-3.764826 0.04162204 -24 4.2108e+06
-3.772526 0.4213347 -24 4.2108e+06
-3.780232 0.8022622 -24 4.2108e+06
-3.787982 1.184412 -24 4.2108e+06
-3.795738 1.567786 -24 4.2108e+06
-3.803537 1.952397 -24 4.2108e+06
-3.811343 2.33824 -24 4.2108e+06
-3.819193 2.725335 -24 4.2108e+06
-3.827049 3.113673 -24 4.2108e+06
-3.83495 3.503276 -24 4.2108e+06
-3.842857 3.894132 -24 4.2108e+06
-3.850809 4.286269 -24 4.2108e+06
-3.858768 4.67967 -24 4.2108e+06
-3.866772 5.074364 -24 4.2108e+06
-3.874783 5.47033 -24 4.2108e+06
-3.882839 5.867608 -24 4.2108e+06
-3.890902 6.266166 -24 4.2108e+06
-3.899011 6.666053 -24 4.2108e+06
-3.747169 -3.119368 -22.68906 4.2108e+06
-3.747169 -2.682298 -22.70384 4.2108e+06
-3.747169 -2.245226 -22.71865 4.2108e+06
-3.747169 -1.808156 -22.73343 4.2108e+06
-3.747169 -1.371086 -22.74824 4.2108e+06
-3.747169 -0.934015 -22.76302 4.2108e+06
-3.747169 -0.4969432 -22.77783 4.2108e+06
-3.747169 -0.0598731 -22.79261 4.2108e+06
-3.747169 0.3771983 -22.80742 4.2108e+06
-3.747169 0.8142682 -22.8222 4.2108e+06
-3.747169 1.25134 -22.83702 4.2108e+06
-3.747169 1.68841 -22.85179 4.2108e+06
-3.747169 2.125481 -22.86661 4.2108e+06
-3.747169 2.562551 -22.88139 4.2108e+06
-3.747169 2.999622 -22.8962 4.2108e+06
-3.747169 3.436693 -22.91098 4.2108e+06
-3.747169 3.873762 -22.92579 4.2108e+06
-3.747169 4.310834 -22.94057 4.2108e+06
-3.747169 4.747904 -22.95538 4.2108e+06
-3.747169 5.184978 -22.97016 4.2108e+06
-3.747169 5.622046 -22.98497 4.2108e+06
-3.747169 6.059118 -22.99975 4.2108e+06
-3.747169 6.496188 -23.01456 4.2108e+06
-3.747169 -2.784359 -21.0184 4.2108e+06
-3.747169 -2.267822 -21.03587 4.2108e+06
-3.747169 -1.751284 -21.05338 4.2108e+06
-3.747169 -1.234745 -21.07084 4.2108e+06
-3.747169 -0.7182062 -21.08834 4.2108e+06
-3.747169 -0.2016685 -21.10581 4.2108e+06
-3.747169 0.3148707 -21.12332 4.2108e+06
-3.747169 0.8314078 -21.14078 4.2108e+06
-3.747169 1.347947 -21.15829 4.2108e+06
-3.747169 1.864484 -21.17575 4.2108e+06
-3.747169 2.381023 -21.19326 4.2108e+06
-3.747169 2.897561 -21.21072 4.2108e+06
-3.747169 3.414099 -21.22823 4.2108e+06
-3.747169 3.930638 -21.2457 4.2108e+06
-3.747169 4.447174 -21.2632 4.2108e+06
-3.747169 4.963714 -21.28067 4.2108e+06
-3.747169 5.480251 -21.29817 4.2108e+06
-3.747169 5.996793 -21.31564 4.2108e+06
-3.747169 6.51333 -21.33315 4.2108e+06
-3.747169 -2.931781 -18.58384 4.2108e+06
-3.747169 -2.300457 -18.60524 4.2108e+06
-3.747169 -1.669132 -18.62659 4.2108e+06
-3.747169 -1.037807 -18.64798 4.2108e+06
-3.747169 -0.4064834 -18.66933 4.2108e+06
-3.747169 0.2248421 -18.69073 4.2108e+06
-3.747169 0.8561651 -18.71207 4.2108e+06
-3.747169 1.48749 -18.73347 4.2108e+06
-3.747169 2.118814 -18.75481 4.2108e+06
-3.747169 2.750139 -18.77621 4.2108e+06
-3.747169 3.381463 -18.79756 4.2108e+06
-3.747169 4.012786 -18.81895 4.2108e+06
-3.747169 4.644112 -18.8403 4.2108e+06
-3.747169 5.275434 -18.8617 4.2108e+06
-3.747169 5.906759 -18.88304 4.2108e+06
-3.747169 6.538083 -18.90444 4.2108e+06
