VERSION 0.7
FIELDS x y z rgb
SIZE 4 4 4 4
TYPE F F F F
COUNT 1 1 1 1
WIDTH 453
HEIGHT 1
VIEWPOINT 0 0 0 1 0 0 0
POINTS 453
DATA ascii 
-15.74807 -2.953028 -24 4.2108e+06
-15.11418 -2.953028 -24 4.2108e+06
-15.1397 -2.582835 -24 4.2108e+06
-15.16525 -2.211461 -24 4.2108e+06
-15.19093 -1.838923 -24 4.2108e+06
-15.21664 -1.465194 -24 4.2108e+06
-15.24249 -1.090288 -24 4.2108e+06
-15.26836 -0.7141817 -24 4.2108e+06
-15.29437 -0.3368831 -24 4.2108e+06
-15.32041 0.04162204 -24 4.2108e+06
-15.34659 0.4213347 -24 4.2108e+06
-15.37279 0.8022622 -24 4.2108e+06
-15.39914 1.184412 -24 4.2108e+06
-15.42551 1.567786 -24 4.2108e+06
-15.45203 1.952397 -24 4.2108e+06
-15.47856 2.33824 -24 4.2108e+06
-15.50525 2.725335 -24 4.2108e+06
-15.53197 3.113673 -24 4.2108e+06
-15.55883 3.503276 -24 4.2108e+06
-15.58571 3.894132 -24 4.2108e+06
-15.61275 4.286269 -24 4.2108e+06
-15.63981 4.67967 -24 4.2108e+06
-15.66702 5.074364 -24 4.2108e+06
-15.69426 5.470329 -24 4.2108e+06
-15.72165 5.867607 -24 4.2108e+06
-15.74906 6.266166 -24 4.2108e+06
-14.48029 -2.953028 -24 4.2108e+06
-14.50481 -2.582835 -24 4.2108e+06
-14.52936 -2.211461 -24 4.2108e+06
-14.55403 -1.838923 -24 4.2108e+06
-14.57873 -1.465194 -24 4.2108e+06
-14.60357 -1.090288 -24 4.2108e+06
-14.62842 -0.7141817 -24 4.2108e+06
-14.65342 -0.3368831 -24 4.2108e+06
-14.67843 0.04162204 -24 4.2108e+06
-14.70358 0.4213347 -24 4.2108e+06
-14.72876 0.8022622 -24 4.2108e+06
-14.75407 1.184412 -24 4.2108e+06
-14.77941 1.567786 -24 4.2108e+06
-14.80489 1.952397 -24 4.2108e+06
-14.83039 2.33824 -24 4.2108e+06
-14.85603 2.725335 -24 4.2108e+06
-14.88169 3.113673 -24 4.2108e+06
-14.9075 3.503276 -24 4.2108e+06
-14.93333 3.894132 -24 4.2108e+06
-14.95931 4.286269 -24 4.2108e+06
-14.98531 4.679669 -24 4.2108e+06
-15.01145 5.074364 -24 4.2108e+06
-15.03762 5.47033 -24 4.2108e+06
-15.06394 5.867608 -24 4.2108e+06
-15.09028 6.266167 -24 4.2108e+06
-15.11677 6.666052 -24 4.2108e+06
-13.8464 -2.953028 -24 4.2108e+06
-13.86992 -2.582835 -24 4.2108e+06
-13.89346 -2.211461 -24 4.2108e+06
-13.91713 -1.838922 -24 4.2108e+06
-13.94082 -1.465194 -24 4.2108e+06
-13.96465 -1.090288 -24 4.2108e+06
-13.98849 -0.7141817 -24 4.2108e+06
-14.01246 -0.3368828 -24 4.2108e+06
-14.03646 0.04162204 -24 4.2108e+06
-14.06058 0.4213347 -24 4.2108e+06
-14.08473 0.8022622 -24 4.2108e+06
-14.10901 1.184412 -24 4.2108e+06
-14.13331 1.567786 -24 4.2108e+06
-14.15775 1.952397 -24 4.2108e+06
-14.18221 2.33824 -24 4.2108e+06
-14.2068 2.725335 -24 4.2108e+06
-14.23142 3.113673 -24 4.2108e+06
-14.25617 3.503276 -24 4.2108e+06
-14.28095 3.894132 -24 4.2108e+06
-14.30587 4.286269 -24 4.2108e+06
-14.3308 4.67967 -24 4.2108e+06
-14.35588 5.074364 -24 4.2108e+06
-14.38098 5.47033 -24 4.2108e+06
-14.40623 5.867608 -24 4.2108e+06
-14.43149 6.266166 -24 4.2108e+06
-14.4569 6.666054 -24 4.2108e+06
-13.21251 -2.953028 -24 4.2108e+06
-13.23503 -2.582835 -24 4.2108e+06
-13.25757 -2.211461 -24 4.2108e+06
-13.28024 -1.838922 -24 4.2108e+06
-13.30292 -1.465194 -24 4.2108e+06
-13.32572 -1.090288 -24 4.2108e+06
-13.34855 -0.7141817 -24 4.2108e+06
-13.37151 -0.3368831 -24 4.2108e+06
-13.39448 0.04162204 -24 4.2108e+06
-13.41758 0.4213347 -24 4.2108e+06
-13.4407 0.8022622 -24 4.2108e+06
-13.46394 1.184412 -24 4.2108e+06
-13.48721 1.567786 -24 4.2108e+06
-13.51061 1.952397 -24 4.2108e+06
-13.53403 2.33824 -24 4.2108e+06
-13.55758 2.725335 -24 4.2108e+06
-13.58115 3.113673 -24 4.2108e+06
-13.60485 3.503276 -24 4.2108e+06
-13.62857 3.894132 -24 4.2108e+06
-13.65242 4.286269 -24 4.2108e+06
-13.6763 4.67967 -24 4.2108e+06
-13.70031 5.074364 -24 4.2108e+06
-13.72435 5.470329 -24 4.2108e+06
-13.74851 5.867608 -24 4.2108e+06
-13.7727 6.266166 -24 4.2108e+06
-13.79703 6.666053 -24 4.2108e+06
-12.57862 -2.953028 -24 4.2108e+06
-12.60014 -2.582835 -24 4.2108e+06
-12.62168 -2.211461 -24 4.2108e+06
-12.64334 -1.838922 -24 4.2108e+06
-12.66501 -1.465194 -24 4.2108e+06
-12.6868 -1.090287 -24 4.2108e+06
-12.70862 -0.7141819 -24 4.2108e+06
-12.73055 -0.3368833 -24 4.2108e+06
-12.7525 0.04162204 -24 4.2108e+06
-12.77457 0.4213347 -24 4.2108e+06
-12.79666 0.8022622 -24 4.2108e+06
-12.81888 1.184412 -24 4.2108e+06
-12.84111 1.567786 -24 4.2108e+06
-12.86347 1.952397 -24 4.2108e+06
-12.88585 2.33824 -24 4.2108e+06
-12.90835 2.725335 -24 4.2108e+06
-12.93087 3.113673 -24 4.2108e+06
-12.95352 3.503276 -24 4.2108e+06
-12.97619 3.894132 -24 4.2108e+06
-12.99898 4.286269 -24 4.2108e+06
-13.0218 4.67967 -24 4.2108e+06
-13.04474 5.074364 -24 4.2108e+06
-13.06771 5.47033 -24 4.2108e+06
-13.0908 5.867608 -24 4.2108e+06
-13.11392 6.266166 -24 4.2108e+06
-13.13716 6.666053 -24 4.2108e+06
-11.94473 -2.953028 -24 4.2108e+06
-11.96525 -2.582835 -24 4.2108e+06
-11.98579 -2.211461 -24 4.2108e+06
-12.00644 -1.838922 -24 4.2108e+06
-12.0271 -1.465194 -24 4.2108e+06
-12.04788 -1.090288 -24 4.2108e+06
-12.06868 -0.7141817 -24 4.2108e+06
-12.08959 -0.3368828 -24 4.2108e+06
-12.11052 0.04162216 -24 4.2108e+06
-12.13157 0.4213347 -24 4.2108e+06
-12.15264 0.8022622 -24 4.2108e+06
-12.17382 1.184412 -24 4.2108e+06
-12.19502 1.567786 -24 4.2108e+06
-12.21633 1.952397 -24 4.2108e+06
-12.23767 2.33824 -24 4.2108e+06
-12.25912 2.725335 -24 4.2108e+06
-12.2806 3.113673 -24 4.2108e+06
-12.3022 3.503276 -24 4.2108e+06
-12.32381 3.894132 -24 4.2108e+06
-12.34554 4.286269 -24 4.2108e+06
-12.3673 4.67967 -24 4.2108e+06
-12.38918 5.074364 -24 4.2108e+06
-12.41107 5.470329 -24 4.2108e+06
-12.43309 5.867607 -24 4.2108e+06
-12.45513 6.266167 -24 4.2108e+06
-12.47729 6.666052 -24 4.2108e+06
-11.31084 -2.953028 -24 4.2108e+06
-11.33036 -2.582835 -24 4.2108e+06
-11.34989 -2.211461 -24 4.2108e+06
-11.36954 -1.838922 -24 4.2108e+06
-11.3892 -1.465194 -24 4.2108e+06
-11.40896 -1.090288 -24 4.2108e+06
-11.42875 -0.7141817 -24 4.2108e+06
-11.44864 -0.3368828 -24 4.2108e+06
-11.46855 0.04162216 -24 4.2108e+06
-11.48857 0.4213347 -24 4.2108e+06
-11.5086 0.8022622 -24 4.2108e+06
-11.52875 1.184412 -24 4.2108e+06
-11.54892 1.567786 -24 4.2108e+06
-11.5692 1.952397 -24 4.2108e+06
-11.58949 2.33824 -24 4.2108e+06
-11.6099 2.725335 -24 4.2108e+06
-11.63033 3.113673 -24 4.2108e+06
-11.65087 3.503276 -24 4.2108e+06
-11.67143 3.894132 -24 4.2108e+06
-11.6921 4.286269 -24 4.2108e+06
-11.7128 4.67967 -24 4.2108e+06
-11.73361 5.074364 -24 4.2108e+06
-11.75443 5.47033 -24 4.2108e+06
-11.77538 5.867608 -24 4.2108e+06
-11.79634 6.266166 -24 4.2108e+06
-11.81743 6.666053 -24 4.2108e+06
-10.67695 -2.953028 -24 4.2108e+06
-10.69547 -2.582835 -24 4.2108e+06
-10.714 -2.211461 -24 4.2108e+06
-10.73264 -1.838922 -24 4.2108e+06
-10.75129 -1.465194 -24 4.2108e+06
-10.77004 -1.090288 -24 4.2108e+06
-10.78881 -0.7141817 -24 4.2108e+06
-10.80768 -0.3368828 -24 4.2108e+06
-10.82657 0.04162216 -24 4.2108e+06
-10.84556 0.4213347 -24 4.2108e+06
-10.86457 0.8022622 -24 4.2108e+06
-10.88369 1.184412 -24 4.2108e+06
-10.90282 1.567786 -24 4.2108e+06
-10.92206 1.952397 -24 4.2108e+06
-10.94131 2.33824 -24 4.2108e+06
-10.96067 2.725335 -24 4.2108e+06
-10.98005 3.113673 -24 4.2108e+06
-10.99954 3.503276 -24 4.2108e+06
-11.01905 3.894132 -24 4.2108e+06
-11.03866 4.286269 -24 4.2108e+06
-11.05829 4.67967 -24 4.2108e+06
-11.07804 5.074364 -24 4.2108e+06
-11.09779 5.470329 -24 4.2108e+06
-11.11767 5.867608 -24 4.2108e+06
-11.13756 6.266167 -24 4.2108e+06
-11.15756 6.666053 -24 4.2108e+06
-10.04306 -2.953028 -24 4.2108e+06
-10.06058 -2.582835 -24 4.2108e+06
-10.07811 -2.211461 -24 4.2108e+06
-10.09574 -1.838922 -24 4.2108e+06
-10.11338 -1.465194 -24 4.2108e+06
-10.13112 -1.090288 -24 4.2108e+06
-10.14887 -0.7141817 -24 4.2108e+06
-10.16673 -0.3368831 -24 4.2108e+06
-10.18459 0.04162204 -24 4.2108e+06
-10.20256 0.4213347 -24 4.2108e+06
-10.22054 0.8022622 -24 4.2108e+06
-10.23862 1.184412 -24 4.2108e+06
-10.25672 1.567786 -24 4.2108e+06
-10.27492 1.952397 -24 4.2108e+06
-10.29313 2.33824 -24 4.2108e+06
-10.31145 2.725335 -24 4.2108e+06
-10.32978 3.113673 -24 4.2108e+06
-10.34822 3.503276 -24 4.2108e+06
-10.36667 3.894132 -24 4.2108e+06
-10.38522 4.286269 -24 4.2108e+06
-10.40379 4.679669 -24 4.2108e+06
-10.42247 5.074364 -24 4.2108e+06
-10.44116 5.47033 -24 4.2108e+06
-10.45996 5.867608 -24 4.2108e+06
-10.47877 6.266166 -24 4.2108e+06
-10.49769 6.666053 -24 4.2108e+06
-9.409175 -2.953028 -24 4.2108e+06
-9.425691 -2.582835 -24 4.2108e+06
-9.442219 -2.211461 -24 4.2108e+06
-9.458839 -1.838922 -24 4.2108e+06
-9.475472 -1.465194 -24 4.2108e+06
-9.492198 -1.090288 -24 4.2108e+06
-9.508938 -0.7141817 -24 4.2108e+06
-9.525771 -0.3368831 -24 4.2108e+06
-9.542617 0.04162204 -24 4.2108e+06
-9.559556 0.4213347 -24 4.2108e+06
-9.57651 0.8022622 -24 4.2108e+06
-9.59356 1.184412 -24 4.2108e+06
-9.610622 1.567786 -24 4.2108e+06
-9.627781 1.952397 -24 4.2108e+06
-9.644954 2.33824 -24 4.2108e+06
-9.662224 2.725335 -24 4.2108e+06
-9.679507 3.113673 -24 4.2108e+06
-9.69689 3.503276 -24 4.2108e+06
-9.714285 3.894132 -24 4.2108e+06
-9.731779 4.286269 -24 4.2108e+06
-9.749288 4.679669 -24 4.2108e+06
-9.766897 5.074364 -24 4.2108e+06
-9.784521 5.47033 -24 4.2108e+06
-9.802244 5.867608 -24 4.2108e+06
-9.819983 6.266166 -24 4.2108e+06
-9.837824 6.666053 -24 4.2108e+06
-8.775285 -2.953028 -24 4.2108e+06
-8.7908 -2.582835 -24 4.2108e+06
-8.806326 -2.211461 -24 4.2108e+06
-8.821939 -1.838922 -24 4.2108e+06
-8.837564 -1.465194 -24 4.2108e+06
-8.853277 -1.090288 -24 4.2108e+06
-8.869002 -0.7141817 -24 4.2108e+06
-8.884814 -0.3368828 -24 4.2108e+06
-8.900639 0.04162216 -24 4.2108e+06
-8.916553 0.4213347 -24 4.2108e+06
-8.93248 0.8022622 -24 4.2108e+06
-8.948495 1.184412 -24 4.2108e+06
-8.964524 1.567786 -24 4.2108e+06
-8.980642 1.952397 -24 4.2108e+06
-8.996776 2.33824 -24 4.2108e+06
-9.012998 2.725335 -24 4.2108e+06
-9.029234 3.113673 -24 4.2108e+06
-9.045562 3.503276 -24 4.2108e+06
-9.061904 3.894132 -24 4.2108e+06
-9.078339 4.286269 -24 4.2108e+06
-9.094786 4.67967 -24 4.2108e+06
-9.111327 5.074364 -24 4.2108e+06
-9.127882 5.470329 -24 4.2108e+06
-9.144532 5.867608 -24 4.2108e+06
-9.161197 6.266166 -24 4.2108e+06
-9.177955 6.666052 -24 4.2108e+06
-8.141396 -2.953027 -24 4.2108e+06
-8.15591 -2.582835 -24 4.2108e+06
-8.170435 -2.211461 -24 4.2108e+06
-8.18504 -1.838922 -24 4.2108e+06
-8.199657 -1.465194 -24 4.2108e+06
-8.214355 -1.090288 -24 4.2108e+06
-8.229066 -0.7141817 -24 4.2108e+06
-8.243858 -0.3368831 -24 4.2108e+06
-8.258662 0.04162216 -24 4.2108e+06
-8.273549 0.4213347 -24 4.2108e+06
-8.288449 0.8022622 -24 4.2108e+06
-8.303432 1.184412 -24 4.2108e+06
-8.318425 1.567786 -24 4.2108e+06
-8.333504 1.952397 -24 4.2108e+06
-8.348597 2.33824 -24 4.2108e+06
-8.363772 2.725335 -24 4.2108e+06
-8.378962 3.113673 -24 4.2108e+06
-8.394236 3.503276 -24 4.2108e+06
-8.409523 3.894132 -24 4.2108e+06
-8.424896 4.286269 -24 4.2108e+06
-8.440283 4.67967 -24 4.2108e+06
-8.455758 5.074364 -24 4.2108e+06
-8.471245 5.47033 -24 4.2108e+06
-8.48682 5.867608 -24 4.2108e+06
-8.502409 6.266166 -24 4.2108e+06
-8.518086 6.666053 -24 4.2108e+06
-7.769572 -3.065511 -23.75286 4.2108e+06
-7.769572 -2.678614 -23.76598 4.2108e+06
-7.769572 -2.29172 -23.77906 4.2108e+06
-7.769572 -1.904823 -23.79217 4.2108e+06
-7.769572 -1.517928 -23.80525 4.2108e+06
-7.769572 -1.131033 -23.81837 4.2108e+06
-7.769572 -0.7441366 -23.83145 4.2108e+06
-7.769572 -0.3572402 -23.84456 4.2108e+06
-7.769572 0.0296551 -23.85764 4.2108e+06
-7.769572 0.4165515 -23.87075 4.2108e+06
-7.769572 0.8034464 -23.88383 4.2108e+06
-7.769572 1.190343 -23.89695 4.2108e+06
-7.769572 1.577238 -23.91003 4.2108e+06
-7.769572 1.964134 -23.92314 4.2108e+06
-7.769572 2.351029 -23.93622 4.2108e+06
-7.769572 2.737925 -23.94934 4.2108e+06
-7.769572 3.124821 -23.96242 4.2108e+06
-7.769572 3.511715 -23.97553 4.2108e+06
-7.769572 3.898612 -23.98861 4.2108e+06
-7.771457 4.286269 -24 4.2108e+06
-7.785783 4.67967 -24 4.2108e+06
-7.80019 5.074364 -24 4.2108e+06
-7.814608 5.470329 -24 4.2108e+06
-7.829109 5.867608 -24 4.2108e+06
-7.843623 6.266166 -24 4.2108e+06
-7.858219 6.666053 -24 4.2108e+06
-7.769572 -2.950505 -23.10165 4.2108e+06
-7.769572 -2.532657 -23.11578 4.2108e+06
-7.769572 -2.114809 -23.12994 4.2108e+06
-7.769572 -1.696962 -23.14407 4.2108e+06
-7.769572 -1.279115 -23.15823 4.2108e+06
-7.769572 -0.8612678 -23.17236 4.2108e+06
-7.769572 -0.4434197 -23.18652 4.2108e+06
-7.769572 -0.02557254 -23.20065 4.2108e+06
-7.769572 0.3922756 -23.21481 4.2108e+06
-7.769572 0.8101221 -23.22894 4.2108e+06
-7.769572 1.22797 -23.2431 4.2108e+06
-7.769572 1.645817 -23.25723 4.2108e+06
-7.769572 2.063665 -23.27139 4.2108e+06
-7.769572 2.481512 -23.28552 4.2108e+06
-7.769572 2.899359 -23.29968 4.2108e+06
-7.769572 3.317207 -23.31381 4.2108e+06
-7.769572 3.735053 -23.32797 4.2108e+06
-7.769572 4.152901 -23.3421 4.2108e+06
-7.769572 4.570748 -23.35626 4.2108e+06
-7.769572 4.988599 -23.37039 4.2108e+06
-7.769572 5.406445 -23.38455 4.2108e+06
-7.769572 5.824293 -23.39868 4.2108e+06
-7.769572 6.24214 -23.41284 4.2108e+06
-7.769572 6.659986 -23.42697 4.2108e+06
-7.769572 -2.815497 -22.33715 4.2108e+06
-7.769572 -2.361315 -22.35255 4.2108e+06
-7.769572 -1.907133 -22.3679 4.2108e+06
-7.769572 -1.452952 -22.3833 4.2108e+06
-7.769572 -0.9987693 -22.39865 4.2108e+06
-7.769572 -0.5445864 -22.41405 4.2108e+06
-7.769572 -0.09040499 -22.4294 4.2108e+06
-7.769572 0.3637778 -22.4448 4.2108e+06
-7.769572 0.8179588 -22.46015 4.2108e+06
-7.769572 1.272141 -22.47555 4.2108e+06
-7.769572 1.726323 -22.4909 4.2108e+06
-7.769572 2.180505 -22.5063 4.2108e+06
-7.769572 2.634687 -22.52165 4.2108e+06
-7.769572 3.088868 -22.53704 4.2108e+06
-7.769572 3.543051 -22.5524 4.2108e+06
-7.769572 3.997231 -22.56779 4.2108e+06
-7.769572 4.451415 -22.58315 4.2108e+06
-7.769572 4.905596 -22.59854 4.2108e+06
-7.769572 5.359781 -22.6139 4.2108e+06
-7.769572 5.813962 -22.62929 4.2108e+06
-7.769572 6.268145 -22.64465 4.2108e+06
-7.769572 6.722325 -22.66004 4.2108e+06
-7.769572 -3.152211 -21.41022 4.2108e+06
-7.769572 -2.654773 -21.42707 4.2108e+06
-7.769572 -2.157336 -21.44389 4.2108e+06
-7.769572 -1.6599 -21.46075 4.2108e+06
-7.769572 -1.162462 -21.47757 4.2108e+06
-7.769572 -0.6650236 -21.49443 4.2108e+06
-7.769572 -0.1675866 -21.51125 4.2108e+06
-7.769572 0.3298517 -21.52811 4.2108e+06
-7.769572 0.8272882 -21.54493 4.2108e+06
-7.769572 1.324726 -21.56179 4.2108e+06
-7.769572 1.822163 -21.57861 4.2108e+06
-7.769572 2.319601 -21.59547 4.2108e+06
-7.769572 2.817038 -21.61229 4.2108e+06
-7.769572 3.314475 -21.62914 4.2108e+06
-7.769572 3.811913 -21.64596 4.2108e+06
-7.769572 4.309349 -21.66282 4.2108e+06
-7.769572 4.806787 -21.67964 4.2108e+06
-7.769572 5.304224 -21.6965 4.2108e+06
-7.769572 5.801665 -21.71332 4.2108e+06
-7.769572 6.299101 -21.73018 4.2108e+06
-7.769572 6.796539 -21.747 4.2108e+06
-7.769572 -3.010012 -20.30677 4.2108e+06
-7.769572 -2.460214 -20.32536 4.2108e+06
-7.769572 -1.910415 -20.34399 4.2108e+06
-7.769572 -1.360616 -20.36258 4.2108e+06
-7.769572 -0.8108151 -20.38121 4.2108e+06
-7.769572 -0.2610166 -20.3998 4.2108e+06
-7.769572 0.2887836 -20.41844 4.2108e+06
-7.769572 0.8385817 -20.43703 4.2108e+06
-7.769572 1.388382 -20.45566 4.2108e+06
-7.769572 1.93818 -20.47425 4.2108e+06
-7.769572 2.48798 -20.49288 4.2108e+06
-7.769572 3.037779 -20.51147 4.2108e+06
-7.769572 3.587578 -20.53011 4.2108e+06
-7.769572 4.137378 -20.5487 4.2108e+06
-7.769572 4.687175 -20.56733 4.2108e+06
-7.769572 5.236976 -20.58592 4.2108e+06
-7.769572 5.786774 -20.60455 4.2108e+06
-7.769572 6.336577 -20.62314 4.2108e+06
-7.769572 -2.834357 -18.94363 4.2108e+06
-7.769572 -2.219876 -18.96446 4.2108e+06
-7.769572 -1.605394 -18.98524 4.2108e+06
-7.769572 -0.9909112 -19.00606 4.2108e+06
-7.769572 -0.3764303 -19.02684 4.2108e+06
-7.769572 0.2380521 -19.04766 4.2108e+06
-7.769572 0.8525324 -19.06844 4.2108e+06
-7.769572 1.467015 -19.08927 4.2108e+06
-7.769572 2.081495 -19.11004 4.2108e+06
-7.769572 2.695978 -19.13087 4.2108e+06
-7.769572 3.310459 -19.15165 4.2108e+06
-7.769572 3.92494 -19.17247 4.2108e+06
-7.769572 4.539422 -19.19325 4.2108e+06
-7.769572 5.153902 -19.21407 4.2108e+06
-7.769572 5.768385 -19.23485 4.2108e+06
-7.769572 6.382865 -19.25568 4.2108e+06
-7.769572 -2.611859 -17.21706 4.2108e+06
-7.769572 -1.915446 -17.2406 4.2108e+06
-7.769572 -1.219033 -17.26421 4.2108e+06
-7.769572 -0.5226209 -17.28775 4.2108e+06
-7.769572 0.1737926 -17.31136 4.2108e+06
-7.769572 0.8702034 -17.3349 4.2108e+06
-7.769572 1.566617 -17.35851 4.2108e+06
-7.769572 2.263028 -17.38205 4.2108e+06
-7.769572 2.959441 -17.40565 4.2108e+06
-7.769572 3.655853 -17.4292 4.2108e+06
-7.769572 4.352264 -17.4528 4.2108e+06
-7.769572 5.048678 -17.47635 4.2108e+06
-7.769572 5.745089 -17.49995 4.2108e+06
-7.769572 6.441502 -17.5235 4.2108e+06
