VERSION 0.7
FIELDS x y z rgb
SIZE 4 4 4 4
TYPE F F F F
COUNT 1 1 1 1
WIDTH 460
HEIGHT 1
VIEWPOINT 0 0 0 1 0 0 0
POINTS 460
DATA ascii 
-16.38196 -2.953028 -24 4.2108e+06
-16.40948 -2.582835 -24 4.2108e+06
-16.43703 -2.211461 -24 4.2108e+06
-16.46473 -1.838922 -24 4.2108e+06
-15.74807 -2.953028 -24 4.2108e+06
-15.77459 -2.582835 -24 4.2108e+06
-15.80114 -2.211462 -24 4.2108e+06
-15.82783 -1.838922 -24 4.2108e+06
-15.85455 -1.465194 -24 4.2108e+06
-15.88141 -1.090288 -24 4.2108e+06
-15.90829 -0.7141817 -24 4.2108e+06
-15.93533 -0.3368831 -24 4.2108e+06
-15.96238 0.04162216 -24 4.2108e+06
-15.98959 0.4213347 -24 4.2108e+06
-16.01682 0.8022622 -24 4.2108e+06
-16.0442 1.184412 -24 4.2108e+06
-16.07161 1.567786 -24 4.2108e+06
-16.09916 1.952397 -24 4.2108e+06
-16.12674 2.338241 -24 4.2108e+06
-16.15448 2.725335 -24 4.2108e+06
-16.18224 3.113673 -24 4.2108e+06
-16.21015 3.503276 -24 4.2108e+06
-16.23809 3.894132 -24 4.2108e+06
-16.26619 4.286269 -24 4.2108e+06
-16.29431 4.67967 -24 4.2108e+06
-16.32259 5.074364 -24 4.2108e+06
-16.35089 5.47033 -24 4.2108e+06
-16.37936 5.867608 -24 4.2108e+06
-16.40785 6.266166 -24 4.2108e+06
-16.4365 6.666052 -24 4.2108e+06
-15.11418 -2.953028 -24 4.2108e+06
-15.1397 -2.582835 -24 4.2108e+06
-15.16525 -2.211461 -24 4.2108e+06
-15.19093 -1.838923 -24 4.2108e+06
-15.21664 -1.465194 -24 4.2108e+06
-15.24249 -1.090288 -24 4.2108e+06
-15.26836 -0.7141817 -24 4.2108e+06
-15.29437 -0.3368831 -24 4.2108e+06
-15.32041 0.04162204 -24 4.2108e+06
-15.34659 0.4213347 -24 4.2108e+06
-15.37279 0.8022622 -24 4.2108e+06
-15.39914 1.184412 -24 4.2108e+06
-15.42551 1.567786 -24 4.2108e+06
-15.45203 1.952397 -24 4.2108e+06
-15.47856 2.33824 -24 4.2108e+06
-15.50525 2.725335 -24 4.2108e+06
-15.53197 3.113673 -24 4.2108e+06
-15.55883 3.503276 -24 4.2108e+06
-15.58571 3.894132 -24 4.2108e+06
-15.61275 4.286269 -24 4.2108e+06
-15.63981 4.67967 -24 4.2108e+06
-15.66702 5.074364 -24 4.2108e+06
-15.69426 5.470329 -24 4.2108e+06
-15.72165 5.867607 -24 4.2108e+06
-15.74906 6.266166 -24 4.2108e+06
-15.77664 6.666053 -24 4.2108e+06
-14.48029 -2.953028 -24 4.2108e+06
-14.50481 -2.582835 -24 4.2108e+06
-14.52936 -2.211461 -24 4.2108e+06
-14.55403 -1.838923 -24 4.2108e+06
-14.57873 -1.465194 -24 4.2108e+06
-14.60357 -1.090288 -24 4.2108e+06
-14.62842 -0.7141817 -24 4.2108e+06
-14.65342 -0.3368831 -24 4.2108e+06
-14.67843 0.04162204 -24 4.2108e+06
-14.70358 0.4213347 -24 4.2108e+06
-14.72876 0.8022622 -24 4.2108e+06
-14.75407 1.184412 -24 4.2108e+06
-14.77941 1.567786 -24 4.2108e+06
-14.80489 1.952397 -24 4.2108e+06
-14.83039 2.33824 -24 4.2108e+06
-14.85603 2.725335 -24 4.2108e+06
-14.88169 3.113673 -24 4.2108e+06
-14.9075 3.503276 -24 4.2108e+06
-14.93333 3.894132 -24 4.2108e+06
-14.95931 4.286269 -24 4.2108e+06
-14.98531 4.679669 -24 4.2108e+06
-15.01145 5.074364 -24 4.2108e+06
-15.03762 5.47033 -24 4.2108e+06
-15.06394 5.867608 -24 4.2108e+06
-15.09028 6.266167 -24 4.2108e+06
-15.11677 6.666052 -24 4.2108e+06
-13.8464 -2.953028 -24 4.2108e+06
-13.86992 -2.582835 -24 4.2108e+06
-13.89346 -2.211461 -24 4.2108e+06
-13.91713 -1.838922 -24 4.2108e+06
-13.94082 -1.465194 -24 4.2108e+06
-13.96465 -1.090288 -24 4.2108e+06
-13.98849 -0.7141817 -24 4.2108e+06
-14.01246 -0.3368828 -24 4.2108e+06
-14.03646 0.04162204 -24 4.2108e+06
-14.06058 0.4213347 -24 4.2108e+06
-14.08473 0.8022622 -24 4.2108e+06
-14.10901 1.184412 -24 4.2108e+06
-14.13331 1.567786 -24 4.2108e+06
-14.15775 1.952397 -24 4.2108e+06
-14.18221 2.33824 -24 4.2108e+06
-14.2068 2.725335 -24 4.2108e+06
-14.23142 3.113673 -24 4.2108e+06
-14.25617 3.503276 -24 4.2108e+06
-14.28095 3.894132 -24 4.2108e+06
-14.30587 4.286269 -24 4.2108e+06
-14.3308 4.67967 -24 4.2108e+06
-14.35588 5.074364 -24 4.2108e+06
-14.38098 5.47033 -24 4.2108e+06
-14.40623 5.867608 -24 4.2108e+06
-14.43149 6.266166 -24 4.2108e+06
-14.4569 6.666054 -24 4.2108e+06
-13.21251 -2.953028 -24 4.2108e+06
-13.23503 -2.582835 -24 4.2108e+06
-13.25757 -2.211461 -24 4.2108e+06
-13.28024 -1.838922 -24 4.2108e+06
-13.30292 -1.465194 -24 4.2108e+06
-13.32572 -1.090288 -24 4.2108e+06
-13.34855 -0.7141817 -24 4.2108e+06
-13.37151 -0.3368831 -24 4.2108e+06
-13.39448 0.04162204 -24 4.2108e+06
-13.41758 0.4213347 -24 4.2108e+06
-13.4407 0.8022622 -24 4.2108e+06
-13.46394 1.184412 -24 4.2108e+06
-13.48721 1.567786 -24 4.2108e+06
-13.51061 1.952397 -24 4.2108e+06
-13.53403 2.33824 -24 4.2108e+06
-13.55758 2.725335 -24 4.2108e+06
-13.58115 3.113673 -24 4.2108e+06
-13.60485 3.503276 -24 4.2108e+06
-13.62857 3.894132 -24 4.2108e+06
-13.65242 4.286269 -24 4.2108e+06
-13.6763 4.67967 -24 4.2108e+06
-13.70031 5.074364 -24 4.2108e+06
-13.72435 5.470329 -24 4.2108e+06
-13.74851 5.867608 -24 4.2108e+06
-13.7727 6.266166 -24 4.2108e+06
-13.79703 6.666053 -24 4.2108e+06
-12.57862 -2.953028 -24 4.2108e+06
-12.60014 -2.582835 -24 4.2108e+06
-12.62168 -2.211461 -24 4.2108e+06
-12.64334 -1.838922 -24 4.2108e+06
-12.66501 -1.465194 -24 4.2108e+06
-12.6868 -1.090287 -24 4.2108e+06
-12.70862 -0.7141819 -24 4.2108e+06
-12.73055 -0.3368833 -24 4.2108e+06
-12.7525 0.04162204 -24 4.2108e+06
-12.77457 0.4213347 -24 4.2108e+06
-12.79666 0.8022622 -24 4.2108e+06
-12.81888 1.184412 -24 4.2108e+06
-12.84111 1.567786 -24 4.2108e+06
-12.86347 1.952397 -24 4.2108e+06
-12.88585 2.33824 -24 4.2108e+06
-12.90835 2.725335 -24 4.2108e+06
-12.93087 3.113673 -24 4.2108e+06
-12.95352 3.503276 -24 4.2108e+06
-12.97619 3.894132 -24 4.2108e+06
-12.99898 4.286269 -24 4.2108e+06
-13.0218 4.67967 -24 4.2108e+06
-13.04474 5.074364 -24 4.2108e+06
-13.06771 5.47033 -24 4.2108e+06
-13.0908 5.867608 -24 4.2108e+06
-13.11392 6.266166 -24 4.2108e+06
-13.13716 6.666053 -24 4.2108e+06
-11.94473 -2.953028 -24 4.2108e+06
-11.96525 -2.582835 -24 4.2108e+06
-11.98579 -2.211461 -24 4.2108e+06
-12.00644 -1.838922 -24 4.2108e+06
-12.0271 -1.465194 -24 4.2108e+06
-12.04788 -1.090288 -24 4.2108e+06
-12.06868 -0.7141817 -24 4.2108e+06
-12.08959 -0.3368828 -24 4.2108e+06
-12.11052 0.04162216 -24 4.2108e+06
-12.13157 0.4213347 -24 4.2108e+06
-12.15264 0.8022622 -24 4.2108e+06
-12.17382 1.184412 -24 4.2108e+06
-12.19502 1.567786 -24 4.2108e+06
-12.21633 1.952397 -24 4.2108e+06
-12.23767 2.33824 -24 4.2108e+06
-12.25912 2.725335 -24 4.2108e+06
-12.2806 3.113673 -24 4.2108e+06
-12.3022 3.503276 -24 4.2108e+06
-12.32381 3.894132 -24 4.2108e+06
-12.34554 4.286269 -24 4.2108e+06
-12.3673 4.67967 -24 4.2108e+06
-12.38918 5.074364 -24 4.2108e+06
-12.41107 5.470329 -24 4.2108e+06
-12.43309 5.867607 -24 4.2108e+06
-12.45513 6.266167 -24 4.2108e+06
-12.47729 6.666052 -24 4.2108e+06
-11.31084 -2.953028 -24 4.2108e+06
-11.33036 -2.582835 -24 4.2108e+06
-11.34989 -2.211461 -24 4.2108e+06
-11.36954 -1.838922 -24 4.2108e+06
-11.3892 -1.465194 -24 4.2108e+06
-11.40896 -1.090288 -24 4.2108e+06
-11.42875 -0.7141817 -24 4.2108e+06
-11.44864 -0.3368828 -24 4.2108e+06
-11.46855 0.04162216 -24 4.2108e+06
-11.48857 0.4213347 -24 4.2108e+06
-11.5086 0.8022622 -24 4.2108e+06
-11.52875 1.184412 -24 4.2108e+06
-11.54892 1.567786 -24 4.2108e+06
-11.5692 1.952397 -24 4.2108e+06
-11.58949 2.33824 -24 4.2108e+06
-11.6099 2.725335 -24 4.2108e+06
-11.63033 3.113673 -24 4.2108e+06
-11.65087 3.503276 -24 4.2108e+06
-11.67143 3.894132 -24 4.2108e+06
-11.6921 4.286269 -24 4.2108e+06
-11.7128 4.67967 -24 4.2108e+06
-11.73361 5.074364 -24 4.2108e+06
-11.75443 5.47033 -24 4.2108e+06
-11.77538 5.867608 -24 4.2108e+06
-11.79634 6.266166 -24 4.2108e+06
-11.81743 6.666053 -24 4.2108e+06
-10.67695 -2.953028 -24 4.2108e+06
-10.69547 -2.582835 -24 4.2108e+06
-10.714 -2.211461 -24 4.2108e+06
-10.73264 -1.838922 -24 4.2108e+06
-10.75129 -1.465194 -24 4.2108e+06
-10.77004 -1.090288 -24 4.2108e+06
-10.78881 -0.7141817 -24 4.2108e+06
-10.80768 -0.3368828 -24 4.2108e+06
-10.82657 0.04162216 -24 4.2108e+06
-10.84556 0.4213347 -24 4.2108e+06
-10.86457 0.8022622 -24 4.2108e+06
-10.88369 1.184412 -24 4.2108e+06
-10.90282 1.567786 -24 4.2108e+06
-10.92206 1.952397 -24 4.2108e+06
-10.94131 2.33824 -24 4.2108e+06
-10.96067 2.725335 -24 4.2108e+06
-10.98005 3.113673 -24 4.2108e+06
-10.99954 3.503276 -24 4.2108e+06
-11.01905 3.894132 -24 4.2108e+06
-11.03866 4.286269 -24 4.2108e+06
-11.05829 4.67967 -24 4.2108e+06
-11.07804 5.074364 -24 4.2108e+06
-11.09779 5.470329 -24 4.2108e+06
-11.11767 5.867608 -24 4.2108e+06
-11.13756 6.266167 -24 4.2108e+06
-11.15756 6.666053 -24 4.2108e+06
-10.04306 -2.953028 -24 4.2108e+06
-10.06058 -2.582835 -24 4.2108e+06
-10.07811 -2.211461 -24 4.2108e+06
-10.09574 -1.838922 -24 4.2108e+06
-10.11338 -1.465194 -24 4.2108e+06
-10.13112 -1.090288 -24 4.2108e+06
-10.14887 -0.7141817 -24 4.2108e+06
-10.16673 -0.3368831 -24 4.2108e+06
-10.18459 0.04162204 -24 4.2108e+06
-10.20256 0.4213347 -24 4.2108e+06
-10.22054 0.8022622 -24 4.2108e+06
-10.23862 1.184412 -24 4.2108e+06
-10.25672 1.567786 -24 4.2108e+06
-10.27492 1.952397 -24 4.2108e+06
-10.29313 2.33824 -24 4.2108e+06
-10.31145 2.725335 -24 4.2108e+06
-10.32978 3.113673 -24 4.2108e+06
-10.34822 3.503276 -24 4.2108e+06
-10.36667 3.894132 -24 4.2108e+06
-10.38522 4.286269 -24 4.2108e+06
-10.40379 4.679669 -24 4.2108e+06
-10.42247 5.074364 -24 4.2108e+06
-10.44116 5.47033 -24 4.2108e+06
-10.45996 5.867608 -24 4.2108e+06
-10.47877 6.266166 -24 4.2108e+06
-10.49769 6.666053 -24 4.2108e+06
-9.409175 -2.953028 -24 4.2108e+06
-9.425691 -2.582835 -24 4.2108e+06
-9.442219 -2.211461 -24 4.2108e+06
-9.458839 -1.838922 -24 4.2108e+06
-9.475472 -1.465194 -24 4.2108e+06
-9.492198 -1.090288 -24 4.2108e+06
-9.508938 -0.7141817 -24 4.2108e+06
-9.525771 -0.3368831 -24 4.2108e+06
-9.542617 0.04162204 -24 4.2108e+06
-9.559556 0.4213347 -24 4.2108e+06
-9.57651 0.8022622 -24 4.2108e+06
-9.59356 1.184412 -24 4.2108e+06
-9.610622 1.567786 -24 4.2108e+06
-9.627781 1.952397 -24 4.2108e+06
-9.644954 2.33824 -24 4.2108e+06
-9.662224 2.725335 -24 4.2108e+06
-9.679507 3.113673 -24 4.2108e+06
-9.69689 3.503276 -24 4.2108e+06
-9.714285 3.894132 -24 4.2108e+06
-9.731779 4.286269 -24 4.2108e+06
-9.749288 4.679669 -24 4.2108e+06
-9.766897 5.074364 -24 4.2108e+06
-9.784521 5.47033 -24 4.2108e+06
-9.802244 5.867608 -24 4.2108e+06
-9.819983 6.266166 -24 4.2108e+06
-9.837824 6.666053 -24 4.2108e+06
-8.775285 -2.953028 -24 4.2108e+06
-8.7908 -2.582835 -24 4.2108e+06
-8.806326 -2.211461 -24 4.2108e+06
-8.821939 -1.838922 -24 4.2108e+06
-8.837564 -1.465194 -24 4.2108e+06
-8.853277 -1.090288 -24 4.2108e+06
-8.869002 -0.7141817 -24 4.2108e+06
-8.884814 -0.3368828 -24 4.2108e+06
-8.900639 0.04162216 -24 4.2108e+06
-8.916553 0.4213347 -24 4.2108e+06
-8.93248 0.8022622 -24 4.2108e+06
-8.948495 1.184412 -24 4.2108e+06
-8.964524 1.567786 -24 4.2108e+06
-8.980642 1.952397 -24 4.2108e+06
-8.996776 2.33824 -24 4.2108e+06
-9.012998 2.725335 -24 4.2108e+06
-9.029234 3.113673 -24 4.2108e+06
-9.045562 3.503276 -24 4.2108e+06
-9.061904 3.894132 -24 4.2108e+06
-9.078339 4.286269 -24 4.2108e+06
-9.094786 4.67967 -24 4.2108e+06
-9.111327 5.074364 -24 4.2108e+06
-9.127882 5.470329 -24 4.2108e+06
-9.144532 5.867608 -24 4.2108e+06
-9.161197 6.266166 -24 4.2108e+06
-9.177955 6.666052 -24 4.2108e+06
-8.473783 -3.085855 -23.70816 4.2108e+06
-8.473783 -2.69688 -23.72135 4.2108e+06
-8.473783 -2.307905 -23.7345 4.2108e+06
-8.473783 -1.91893 -23.74768 4.2108e+06
-8.473783 -1.529955 -23.76083 4.2108e+06
-8.473783 -1.140981 -23.77402 4.2108e+06
-8.473783 -0.7520053 -23.78717 4.2108e+06
-8.473783 -0.3630297 -23.80035 4.2108e+06
-8.473783 0.02594495 -23.8135 4.2108e+06
-8.473783 0.4149206 -23.82669 4.2108e+06
-8.473783 0.8038948 -23.83984 4.2108e+06
-8.473783 1.19287 -23.85302 4.2108e+06
-8.473783 1.581845 -23.86617 4.2108e+06
-8.473783 1.97082 -23.87936 4.2108e+06
-8.473783 2.359795 -23.89251 4.2108e+06
-8.473783 2.74877 -23.90569 4.2108e+06
-8.473783 3.137745 -23.91884 4.2108e+06
-8.473783 3.526719 -23.93203 4.2108e+06
-8.473783 3.915695 -23.94518 4.2108e+06
-8.473783 4.304669 -23.95836 4.2108e+06
-8.473783 4.693647 -23.97151 4.2108e+06
-8.473783 5.082621 -23.9847 4.2108e+06
-8.473783 5.471597 -23.99785 4.2108e+06
-8.48682 5.867608 -24 4.2108e+06
-8.502409 6.266166 -24 4.2108e+06
-8.518086 6.666053 -24 4.2108e+06
-8.473783 -2.949982 -23.10293 4.2108e+06
-8.473783 -2.532194 -23.11706 4.2108e+06
-8.473783 -2.114406 -23.13122 4.2108e+06
-8.473783 -1.696618 -23.14534 4.2108e+06
-8.473783 -1.278831 -23.1595 4.2108e+06
-8.473783 -0.8610427 -23.17363 4.2108e+06
-8.473783 -0.443254 -23.18779 4.2108e+06
-8.473783 -0.02546644 -23.20191 4.2108e+06
-8.473783 0.3923222 -23.21607 4.2108e+06
-8.473783 0.8101093 -23.2302 4.2108e+06
-8.473783 1.227898 -23.24436 4.2108e+06
-8.473783 1.645685 -23.25848 4.2108e+06
-8.473783 2.063474 -23.27264 4.2108e+06
-8.473783 2.481261 -23.28677 4.2108e+06
-8.473783 2.899049 -23.30093 4.2108e+06
-8.473783 3.316838 -23.31506 4.2108e+06
-8.473783 3.734624 -23.32921 4.2108e+06
-8.473783 4.152413 -23.34334 4.2108e+06
-8.473783 4.5702 -23.3575 4.2108e+06
-8.473783 4.98799 -23.37163 4.2108e+06
-8.473783 5.405777 -23.38579 4.2108e+06
-8.473783 5.823565 -23.39991 4.2108e+06
-8.473783 6.241354 -23.41407 4.2108e+06
-8.473783 6.659142 -23.4282 4.2108e+06
-8.473783 -2.792371 -22.40082 4.2108e+06
-8.473783 -2.341158 -22.41611 4.2108e+06
-8.473783 -1.889948 -22.43137 4.2108e+06
-8.473783 -1.438738 -22.44666 4.2108e+06
-8.473783 -0.9875262 -22.46192 4.2108e+06
-8.473783 -0.5363145 -22.47721 4.2108e+06
-8.473783 -0.08510387 -22.49247 4.2108e+06
-8.473783 0.3661079 -22.50776 4.2108e+06
-8.473783 0.817318 -22.52301 4.2108e+06
-8.473783 1.26853 -22.53831 4.2108e+06
-8.473783 1.71974 -22.55356 4.2108e+06
-8.473783 2.170952 -22.56886 4.2108e+06
-8.473783 2.622162 -22.58411 4.2108e+06
-8.473783 3.073373 -22.5994 4.2108e+06
-8.473783 3.524585 -22.61466 4.2108e+06
-8.473783 3.975794 -22.62995 4.2108e+06
-8.473783 4.427006 -22.64521 4.2108e+06
-8.473783 4.878217 -22.6605 4.2108e+06
-8.473783 5.329431 -22.67575 4.2108e+06
-8.473783 5.780641 -22.69105 4.2108e+06
-8.473783 6.231852 -22.7063 4.2108e+06
-8.473783 6.683063 -22.7216 4.2108e+06
-8.473783 -3.097794 -21.56002 4.2108e+06
-8.473783 -2.607347 -21.57664 4.2108e+06
-8.473783 -2.1169 -21.59323 4.2108e+06
-8.473783 -1.626454 -21.60985 4.2108e+06
-8.473783 -1.136007 -21.62643 4.2108e+06
-8.473783 -0.6455591 -21.64305 4.2108e+06
-8.473783 -0.155113 -21.65964 4.2108e+06
-8.473783 0.3353347 -21.67626 4.2108e+06
-8.473783 0.8257804 -21.69284 4.2108e+06
-8.473783 1.316228 -21.70946 4.2108e+06
-8.473783 1.806674 -21.72605 4.2108e+06
-8.473783 2.297121 -21.74267 4.2108e+06
-8.473783 2.787568 -21.75925 4.2108e+06
-8.473783 3.278014 -21.77587 4.2108e+06
-8.473783 3.768462 -21.79246 4.2108e+06
-8.473783 4.258907 -21.80908 4.2108e+06
-8.473783 4.749354 -21.82566 4.2108e+06
-8.473783 5.2398 -21.84228 4.2108e+06
-8.473783 5.730251 -21.85886 4.2108e+06
-8.473783 6.220696 -21.87549 4.2108e+06
-8.473783 6.711143 -21.89207 4.2108e+06
-8.473783 -2.924237 -20.57727 4.2108e+06
-8.473783 -2.387081 -20.59544 4.2108e+06
-8.473783 -1.849926 -20.61364 4.2108e+06
-8.473783 -1.31277 -20.63181 4.2108e+06
-8.473783 -0.7756126 -20.65001 4.2108e+06
-8.473783 -0.238457 -20.66817 4.2108e+06
-8.473783 0.2986999 -20.68638 4.2108e+06
-8.473783 0.8358547 -20.70454 4.2108e+06
-8.473783 1.373012 -20.72274 4.2108e+06
-8.473783 1.910167 -20.74091 4.2108e+06
-8.473783 2.447323 -20.75911 4.2108e+06
-8.473783 2.984479 -20.77728 4.2108e+06
-8.473783 3.521635 -20.79548 4.2108e+06
-8.473783 4.058791 -20.81364 4.2108e+06
-8.473783 4.595946 -20.83184 4.2108e+06
-8.473783 5.133102 -20.85001 4.2108e+06
-8.473783 5.670259 -20.86821 4.2108e+06
-8.473783 6.207417 -20.88638 4.2108e+06
-8.473783 6.744572 -20.90458 4.2108e+06
-8.473783 -2.714143 -19.38759 4.2108e+06
-8.473783 -2.120445 -19.40771 4.2108e+06
-8.473783 -1.526746 -19.42778 4.2108e+06
-8.473783 -0.9330454 -19.44791 4.2108e+06
-8.473783 -0.3393474 -19.46798 4.2108e+06
-8.473783 0.2543525 -19.4881 4.2108e+06
-8.473783 0.84805 -19.50817 4.2108e+06
-8.473783 1.44175 -19.5283 4.2108e+06
-8.473783 2.035447 -19.54837 4.2108e+06
-8.473783 2.629147 -19.56849 4.2108e+06
-8.473783 3.222845 -19.58857 4.2108e+06
-8.473783 3.816543 -19.60869 4.2108e+06
-8.473783 4.410243 -19.62876 4.2108e+06
-8.473783 5.00394 -19.64888 4.2108e+06
-8.473783 5.59764 -19.66896 4.2108e+06
-8.473783 6.191338 -19.68908 4.2108e+06
-8.473783 6.785041 -19.70915 4.2108e+06
-8.473783 -3.118159 -17.89554 4.2108e+06
-8.473783 -2.454614 -17.91803 4.2108e+06
-8.473783 -1.791068 -17.94046 4.2108e+06
-8.473783 -1.127522 -17.96295 4.2108e+06
-8.473783 -0.4639766 -17.98539 4.2108e+06
-8.473783 0.1995704 -18.00788 4.2108e+06
-8.473783 0.8631147 -18.03031 4.2108e+06
-8.473783 1.526662 -18.0528 4.2108e+06
-8.473783 2.190206 -18.07524 4.2108e+06
-8.473783 2.853752 -18.09772 4.2108e+06
-8.473783 3.517298 -18.12016 4.2108e+06
-8.473783 4.180842 -18.14265 4.2108e+06
-8.473783 4.844389 -18.16508 4.2108e+06
-8.473783 5.507933 -18.18757 4.2108e+06
-8.473783 6.17148 -18.21001 4.2108e+06
