VERSION 0.7
FIELDS x y z rgb
SIZE 4 4 4 4
TYPE F F F F
COUNT 1 1 1 1
WIDTH 457
HEIGHT 1
VIEWPOINT 0 0 0 1 0 0 0
POINTS 457
DATA ascii 
-16.38196 -2.953028 -24 4.2108e+06
-16.40948 -2.582835 -24 4.2108e+06
-15.74807 -2.953028 -24 4.2108e+06
-15.77459 -2.582835 -24 4.2108e+06
-15.80114 -2.211462 -24 4.2108e+06
-15.82783 -1.838922 -24 4.2108e+06
-15.85455 -1.465194 -24 4.2108e+06
-15.88141 -1.090288 -24 4.2108e+06
-15.90829 -0.7141817 -24 4.2108e+06
-15.93533 -0.3368831 -24 4.2108e+06
-15.96238 0.04162216 -24 4.2108e+06
-15.98959 0.4213347 -24 4.2108e+06
-16.01682 0.8022622 -24 4.2108e+06
-16.0442 1.184412 -24 4.2108e+06
-16.07161 1.567786 -24 4.2108e+06
-16.09916 1.952397 -24 4.2108e+06
-16.12674 2.338241 -24 4.2108e+06
-16.15448 2.725335 -24 4.2108e+06
-16.18224 3.113673 -24 4.2108e+06
-16.21015 3.503276 -24 4.2108e+06
-16.23809 3.894132 -24 4.2108e+06
-16.26619 4.286269 -24 4.2108e+06
-16.29431 4.67967 -24 4.2108e+06
-16.32259 5.074364 -24 4.2108e+06
-16.35089 5.47033 -24 4.2108e+06
-16.37936 5.867608 -24 4.2108e+06
-16.40785 6.266166 -24 4.2108e+06
-15.11418 -2.953028 -24 4.2108e+06
-15.1397 -2.582835 -24 4.2108e+06
-15.16525 -2.211461 -24 4.2108e+06
-15.19093 -1.838923 -24 4.2108e+06
-15.21664 -1.465194 -24 4.2108e+06
-15.24249 -1.090288 -24 4.2108e+06
-15.26836 -0.7141817 -24 4.2108e+06
-15.29437 -0.3368831 -24 4.2108e+06
-15.32041 0.04162204 -24 4.2108e+06
-15.34659 0.4213347 -24 4.2108e+06
-15.37279 0.8022622 -24 4.2108e+06
-15.39914 1.184412 -24 4.2108e+06
-15.42551 1.567786 -24 4.2108e+06
-15.45203 1.952397 -24 4.2108e+06
-15.47856 2.33824 -24 4.2108e+06
-15.50525 2.725335 -24 4.2108e+06
-15.53197 3.113673 -24 4.2108e+06
-15.55883 3.503276 -24 4.2108e+06
-15.58571 3.894132 -24 4.2108e+06
-15.61275 4.286269 -24 4.2108e+06
-15.63981 4.67967 -24 4.2108e+06
-15.66702 5.074364 -24 4.2108e+06
-15.69426 5.470329 -24 4.2108e+06
-15.72165 5.867607 -24 4.2108e+06
-15.74906 6.266166 -24 4.2108e+06
-15.77664 6.666053 -24 4.2108e+06
-14.48029 -2.953028 -24 4.2108e+06
-14.50481 -2.582835 -24 4.2108e+06
-14.52936 -2.211461 -24 4.2108e+06
-14.55403 -1.838923 -24 4.2108e+06
-14.57873 -1.465194 -24 4.2108e+06
-14.60357 -1.090288 -24 4.2108e+06
-14.62842 -0.7141817 -24 4.2108e+06
-14.65342 -0.3368831 -24 4.2108e+06
-14.67843 0.04162204 -24 4.2108e+06
-14.70358 0.4213347 -24 4.2108e+06
-14.72876 0.8022622 -24 4.2108e+06
-14.75407 1.184412 -24 4.2108e+06
-14.77941 1.567786 -24 4.2108e+06
-14.80489 1.952397 -24 4.2108e+06
-14.83039 2.33824 -24 4.2108e+06
-14.85603 2.725335 -24 4.2108e+06
-14.88169 3.113673 -24 4.2108e+06
-14.9075 3.503276 -24 4.2108e+06
-14.93333 3.894132 -24 4.2108e+06
-14.95931 4.286269 -24 4.2108e+06
-14.98531 4.679669 -24 4.2108e+06
-15.01145 5.074364 -24 4.2108e+06
-15.03762 5.47033 -24 4.2108e+06
-15.06394 5.867608 -24 4.2108e+06
-15.09028 6.266167 -24 4.2108e+06
-15.11677 6.666052 -24 4.2108e+06
-13.8464 -2.953028 -24 4.2108e+06
-13.86992 -2.582835 -24 4.2108e+06
-13.89346 -2.211461 -24 4.2108e+06
-13.91713 -1.838922 -24 4.2108e+06
-13.94082 -1.465194 -24 4.2108e+06
-13.96465 -1.090288 -24 4.2108e+06
-13.98849 -0.7141817 -24 4.2108e+06
-14.01246 -0.3368828 -24 4.2108e+06
-14.03646 0.04162204 -24 4.2108e+06
-14.06058 0.4213347 -24 4.2108e+06
-14.08473 0.8022622 -24 4.2108e+06
-14.10901 1.184412 -24 4.2108e+06
-14.13331 1.567786 -24 4.2108e+06
-14.15775 1.952397 -24 4.2108e+06
-14.18221 2.33824 -24 4.2108e+06
-14.2068 2.725335 -24 4.2108e+06
-14.23142 3.113673 -24 4.2108e+06
-14.25617 3.503276 -24 4.2108e+06
-14.28095 3.894132 -24 4.2108e+06
-14.30587 4.286269 -24 4.2108e+06
-14.3308 4.67967 -24 4.2108e+06
-14.35588 5.074364 -24 4.2108e+06
-14.38098 5.47033 -24 4.2108e+06
-14.40623 5.867608 -24 4.2108e+06
-14.43149 6.266166 -24 4.2108e+06
-14.4569 6.666054 -24 4.2108e+06
-13.21251 -2.953028 -24 4.2108e+06
-13.23503 -2.582835 -24 4.2108e+06
-13.25757 -2.211461 -24 4.2108e+06
-13.28024 -1.838922 -24 4.2108e+06
-13.30292 -1.465194 -24 4.2108e+06
-13.32572 -1.090288 -24 4.2108e+06
-13.34855 -0.7141817 -24 4.2108e+06
-13.37151 -0.3368831 -24 4.2108e+06
-13.39448 0.04162204 -24 4.2108e+06
-13.41758 0.4213347 -24 4.2108e+06
-13.4407 0.8022622 -24 4.2108e+06
-13.46394 1.184412 -24 4.2108e+06
-13.48721 1.567786 -24 4.2108e+06
-13.51061 1.952397 -24 4.2108e+06
-13.53403 2.33824 -24 4.2108e+06
-13.55758 2.725335 -24 4.2108e+06
-13.58115 3.113673 -24 4.2108e+06
-13.60485 3.503276 -24 4.2108e+06
-13.62857 3.894132 -24 4.2108e+06
-13.65242 4.286269 -24 4.2108e+06
-13.6763 4.67967 -24 4.2108e+06
-13.70031 5.074364 -24 4.2108e+06
-13.72435 5.470329 -24 4.2108e+06
-13.74851 5.867608 -24 4.2108e+06
-13.7727 6.266166 -24 4.2108e+06
-13.79703 6.666053 -24 4.2108e+06
-12.57862 -2.953028 -24 4.2108e+06
-12.60014 -2.582835 -24 4.2108e+06
-12.62168 -2.211461 -24 4.2108e+06
-12.64334 -1.838922 -24 4.2108e+06
-12.66501 -1.465194 -24 4.2108e+06
-12.6868 -1.090287 -24 4.2108e+06
-12.70862 -0.7141819 -24 4.2108e+06
-12.73055 -0.3368833 -24 4.2108e+06
-12.7525 0.04162204 -24 4.2108e+06
-12.77457 0.4213347 -24 4.2108e+06
-12.79666 0.8022622 -24 4.2108e+06
-12.81888 1.184412 -24 4.2108e+06
-12.84111 1.567786 -24 4.2108e+06
-12.86347 1.952397 -24 4.2108e+06
-12.88585 2.33824 -24 4.2108e+06
-12.90835 2.725335 -24 4.2108e+06
-12.93087 3.113673 -24 4.2108e+06
-12.95352 3.503276 -24 4.2108e+06
-12.97619 3.894132 -24 4.2108e+06
-12.99898 4.286269 -24 4.2108e+06
-13.0218 4.67967 -24 4.2108e+06
-13.04474 5.074364 -24 4.2108e+06
-13.06771 5.47033 -24 4.2108e+06
-13.0908 5.867608 -24 4.2108e+06
-13.11392 6.266166 -24 4.2108e+06
-13.13716 6.666053 -24 4.2108e+06
-11.94473 -2.953028 -24 4.2108e+06
-11.96525 -2.582835 -24 4.2108e+06
-11.98579 -2.211461 -24 4.2108e+06
-12.00644 -1.838922 -24 4.2108e+06
-12.0271 -1.465194 -24 4.2108e+06
-12.04788 -1.090288 -24 4.2108e+06
-12.06868 -0.7141817 -24 4.2108e+06
-12.08959 -0.3368828 -24 4.2108e+06
-12.11052 0.04162216 -24 4.2108e+06
-12.13157 0.4213347 -24 4.2108e+06
-12.15264 0.8022622 -24 4.2108e+06
-12.17382 1.184412 -24 4.2108e+06
-12.19502 1.567786 -24 4.2108e+06
-12.21633 1.952397 -24 4.2108e+06
-12.23767 2.33824 -24 4.2108e+06
-12.25912 2.725335 -24 4.2108e+06
-12.2806 3.113673 -24 4.2108e+06
-12.3022 3.503276 -24 4.2108e+06
-12.32381 3.894132 -24 4.2108e+06
-12.34554 4.286269 -24 4.2108e+06
-12.3673 4.67967 -24 4.2108e+06
-12.38918 5.074364 -24 4.2108e+06
-12.41107 5.470329 -24 4.2108e+06
-12.43309 5.867607 -24 4.2108e+06
-12.45513 6.266167 -24 4.2108e+06
-12.47729 6.666052 -24 4.2108e+06
-11.31084 -2.953028 -24 4.2108e+06
-11.33036 -2.582835 -24 4.2108e+06
-11.34989 -2.211461 -24 4.2108e+06
-11.36954 -1.838922 -24 4.2108e+06
-11.3892 -1.465194 -24 4.2108e+06
-11.40896 -1.090288 -24 4.2108e+06
-11.42875 -0.7141817 -24 4.2108e+06
-11.44864 -0.3368828 -24 4.2108e+06
-11.46855 0.04162216 -24 4.2108e+06
-11.48857 0.4213347 -24 4.2108e+06
-11.5086 0.8022622 -24 4.2108e+06
-11.52875 1.184412 -24 4.2108e+06
-11.54892 1.567786 -24 4.2108e+06
-11.5692 1.952397 -24 4.2108e+06
-11.58949 2.33824 -24 4.2108e+06
-11.6099 2.725335 -24 4.2108e+06
-11.63033 3.113673 -24 4.2108e+06
-11.65087 3.503276 -24 4.2108e+06
-11.67143 3.894132 -24 4.2108e+06
-11.6921 4.286269 -24 4.2108e+06
-11.7128 4.67967 -24 4.2108e+06
-11.73361 5.074364 -24 4.2108e+06
-11.75443 5.47033 -24 4.2108e+06
-11.77538 5.867608 -24 4.2108e+06
-11.79634 6.266166 -24 4.2108e+06
-11.81743 6.666053 -24 4.2108e+06
-10.67695 -2.953028 -24 4.2108e+06
-10.69547 -2.582835 -24 4.2108e+06
-10.714 -2.211461 -24 4.2108e+06
-10.73264 -1.838922 -24 4.2108e+06
-10.75129 -1.465194 -24 4.2108e+06
-10.77004 -1.090288 -24 4.2108e+06
-10.78881 -0.7141817 -24 4.2108e+06
-10.80768 -0.3368828 -24 4.2108e+06
-10.82657 0.04162216 -24 4.2108e+06
-10.84556 0.4213347 -24 4.2108e+06
-10.86457 0.8022622 -24 4.2108e+06
-10.88369 1.184412 -24 4.2108e+06
-10.90282 1.567786 -24 4.2108e+06
-10.92206 1.952397 -24 4.2108e+06
-10.94131 2.33824 -24 4.2108e+06
-10.96067 2.725335 -24 4.2108e+06
-10.98005 3.113673 -24 4.2108e+06
-10.99954 3.503276 -24 4.2108e+06
-11.01905 3.894132 -24 4.2108e+06
-11.03866 4.286269 -24 4.2108e+06
-11.05829 4.67967 -24 4.2108e+06
-11.07804 5.074364 -24 4.2108e+06
-11.09779 5.470329 -24 4.2108e+06
-11.11767 5.867608 -24 4.2108e+06
-11.13756 6.266167 -24 4.2108e+06
-11.15756 6.666053 -24 4.2108e+06
-10.04306 -2.953028 -24 4.2108e+06
-10.06058 -2.582835 -24 4.2108e+06
-10.07811 -2.211461 -24 4.2108e+06
-10.09574 -1.838922 -24 4.2108e+06
-10.11338 -1.465194 -24 4.2108e+06
-10.13112 -1.090288 -24 4.2108e+06
-10.14887 -0.7141817 -24 4.2108e+06
-10.16673 -0.3368831 -24 4.2108e+06
-10.18459 0.04162204 -24 4.2108e+06
-10.20256 0.4213347 -24 4.2108e+06
-10.22054 0.8022622 -24 4.2108e+06
-10.23862 1.184412 -24 4.2108e+06
-10.25672 1.567786 -24 4.2108e+06
-10.27492 1.952397 -24 4.2108e+06
-10.29313 2.33824 -24 4.2108e+06
-10.31145 2.725335 -24 4.2108e+06
-10.32978 3.113673 -24 4.2108e+06
-10.34822 3.503276 -24 4.2108e+06
-10.36667 3.894132 -24 4.2108e+06
-10.38522 4.286269 -24 4.2108e+06
-10.40379 4.679669 -24 4.2108e+06
-10.42247 5.074364 -24 4.2108e+06
-10.44116 5.47033 -24 4.2108e+06
-10.45996 5.867608 -24 4.2108e+06
-10.47877 6.266166 -24 4.2108e+06
-10.49769 6.666053 -24 4.2108e+06
-9.409175 -2.953028 -24 4.2108e+06
-9.425691 -2.582835 -24 4.2108e+06
-9.442219 -2.211461 -24 4.2108e+06
-9.458839 -1.838922 -24 4.2108e+06
-9.475472 -1.465194 -24 4.2108e+06
-9.492198 -1.090288 -24 4.2108e+06
-9.508938 -0.7141817 -24 4.2108e+06
-9.525771 -0.3368831 -24 4.2108e+06
-9.542617 0.04162204 -24 4.2108e+06
-9.559556 0.4213347 -24 4.2108e+06
-9.57651 0.8022622 -24 4.2108e+06
-9.59356 1.184412 -24 4.2108e+06
-9.610622 1.567786 -24 4.2108e+06
-9.627781 1.952397 -24 4.2108e+06
-9.644954 2.33824 -24 4.2108e+06
-9.662224 2.725335 -24 4.2108e+06
-9.679507 3.113673 -24 4.2108e+06
-9.69689 3.503276 -24 4.2108e+06
-9.714285 3.894132 -24 4.2108e+06
-9.731779 4.286269 -24 4.2108e+06
-9.749288 4.679669 -24 4.2108e+06
-9.766897 5.074364 -24 4.2108e+06
-9.784521 5.47033 -24 4.2108e+06
-9.802244 5.867608 -24 4.2108e+06
-9.819983 6.266166 -24 4.2108e+06
-9.837824 6.666053 -24 4.2108e+06
-8.775285 -2.953028 -24 4.2108e+06
-8.7908 -2.582835 -24 4.2108e+06
-8.806326 -2.211461 -24 4.2108e+06
-8.821939 -1.838922 -24 4.2108e+06
-8.837564 -1.465194 -24 4.2108e+06
-8.853277 -1.090288 -24 4.2108e+06
-8.869002 -0.7141817 -24 4.2108e+06
-8.884814 -0.3368828 -24 4.2108e+06
-8.900639 0.04162216 -24 4.2108e+06
-8.916553 0.4213347 -24 4.2108e+06
-8.93248 0.8022622 -24 4.2108e+06
-8.948495 1.184412 -24 4.2108e+06
-8.964524 1.567786 -24 4.2108e+06
-8.980642 1.952397 -24 4.2108e+06
-8.996776 2.33824 -24 4.2108e+06
-9.012998 2.725335 -24 4.2108e+06
-9.029234 3.113673 -24 4.2108e+06
-9.045562 3.503276 -24 4.2108e+06
-9.061904 3.894132 -24 4.2108e+06
-9.078339 4.286269 -24 4.2108e+06
-9.094786 4.67967 -24 4.2108e+06
-9.111327 5.074364 -24 4.2108e+06
-9.127882 5.470329 -24 4.2108e+06
-9.144532 5.867608 -24 4.2108e+06
-9.161197 6.266166 -24 4.2108e+06
-9.177955 6.666052 -24 4.2108e+06
-8.425297 -3.066479 -23.75074 4.2108e+06
-8.425297 -2.679484 -23.76385 4.2108e+06
-8.425297 -2.29249 -23.77694 4.2108e+06
-8.425297 -1.905494 -23.79005 4.2108e+06
-8.425297 -1.518501 -23.80314 4.2108e+06
-8.425297 -1.131506 -23.81625 4.2108e+06
-8.425297 -0.7445111 -23.82934 4.2108e+06
-8.425297 -0.3575161 -23.84245 4.2108e+06
-8.425297 0.02947855 -23.85554 4.2108e+06
-8.425297 0.4164739 -23.86866 4.2108e+06
-8.425297 0.8034677 -23.88174 4.2108e+06
-8.425297 1.190463 -23.89486 4.2108e+06
-8.425297 1.577457 -23.90794 4.2108e+06
-8.425297 1.964452 -23.92106 4.2108e+06
-8.425297 2.351447 -23.93414 4.2108e+06
-8.425297 2.738441 -23.94726 4.2108e+06
-8.425297 3.125436 -23.96034 4.2108e+06
-8.425297 3.51243 -23.97346 4.2108e+06
-8.425297 3.899425 -23.98654 4.2108e+06
-8.425297 4.28642 -23.99966 4.2108e+06
-8.440283 4.67967 -24 4.2108e+06
-8.455758 5.074364 -24 4.2108e+06
-8.471245 5.47033 -24 4.2108e+06
-8.48682 5.867608 -24 4.2108e+06
-8.502409 6.266166 -24 4.2108e+06
-8.518086 6.666053 -24 4.2108e+06
-8.425297 -2.931298 -23.14858 4.2108e+06
-8.425297 -2.515637 -23.16264 4.2108e+06
-8.425297 -2.099975 -23.17672 4.2108e+06
-8.425297 -1.684315 -23.19078 4.2108e+06
-8.425297 -1.268655 -23.20487 4.2108e+06
-8.425297 -0.8529935 -23.21892 4.2108e+06
-8.425297 -0.4373319 -23.23301 4.2108e+06
-8.425297 -0.0216713 -23.24706 4.2108e+06
-8.425297 0.3939904 -23.26115 4.2108e+06
-8.425297 0.8096505 -23.2752 4.2108e+06
-8.425297 1.225312 -23.28929 4.2108e+06
-8.425297 1.640972 -23.30334 4.2108e+06
-8.425297 2.056634 -23.31743 4.2108e+06
-8.425297 2.472294 -23.33149 4.2108e+06
-8.425297 2.887955 -23.34557 4.2108e+06
-8.425297 3.303617 -23.35963 4.2108e+06
-8.425297 3.719276 -23.37371 4.2108e+06
-8.425297 4.134938 -23.38777 4.2108e+06
-8.425297 4.550598 -23.40186 4.2108e+06
-8.425297 4.966262 -23.41591 4.2108e+06
-8.425297 5.381922 -23.43 4.2108e+06
-8.425297 5.797584 -23.44405 4.2108e+06
-8.425297 6.213243 -23.45814 4.2108e+06
-8.425297 6.628904 -23.47219 4.2108e+06
-8.425297 -2.774489 -22.45005 4.2108e+06
-8.425297 -2.325573 -22.46526 4.2108e+06
-8.425297 -1.876661 -22.48044 4.2108e+06
-8.425297 -1.427747 -22.49566 4.2108e+06
-8.425297 -0.978833 -22.51083 4.2108e+06
-8.425297 -0.5299184 -22.52605 4.2108e+06
-8.425297 -0.0810051 -22.54123 4.2108e+06
-8.425297 0.3679096 -22.55644 4.2108e+06
-8.425297 0.8168225 -22.57162 4.2108e+06
-8.425297 1.265737 -22.58683 4.2108e+06
-8.425297 1.71465 -22.60201 4.2108e+06
-8.425297 2.163565 -22.61723 4.2108e+06
-8.425297 2.612478 -22.6324 4.2108e+06
-8.425297 3.061392 -22.64762 4.2108e+06
-8.425297 3.510306 -22.6628 4.2108e+06
-8.425297 3.959219 -22.67801 4.2108e+06
-8.425297 4.408134 -22.69319 4.2108e+06
-8.425297 4.857046 -22.7084 4.2108e+06
-8.425297 5.305964 -22.72358 4.2108e+06
-8.425297 5.754876 -22.7388 4.2108e+06
-8.425297 6.203791 -22.75397 4.2108e+06
-8.425297 6.652704 -22.76919 4.2108e+06
-8.425297 -3.078357 -21.61353 4.2108e+06
-8.425297 -2.590407 -21.63007 4.2108e+06
-8.425297 -2.102457 -21.64656 4.2108e+06
-8.425297 -1.614508 -21.6631 4.2108e+06
-8.425297 -1.126558 -21.6796 4.2108e+06
-8.425297 -0.638607 -21.69614 4.2108e+06
-8.425297 -0.1506577 -21.71264 4.2108e+06
-8.425297 0.337293 -21.72917 4.2108e+06
-8.425297 0.8252419 -21.74567 4.2108e+06
-8.425297 1.313193 -21.76221 4.2108e+06
-8.425297 1.801141 -21.77871 4.2108e+06
-8.425297 2.289092 -21.79525 4.2108e+06
-8.425297 2.777041 -21.81174 4.2108e+06
-8.425297 3.264991 -21.82828 4.2108e+06
-8.425297 3.752942 -21.84478 4.2108e+06
-8.425297 4.24089 -21.86132 4.2108e+06
-8.425297 4.728841 -21.87782 4.2108e+06
-8.425297 5.21679 -21.89435 4.2108e+06
-8.425297 5.704743 -21.91085 4.2108e+06
-8.425297 6.192692 -21.92739 4.2108e+06
-8.425297 6.680642 -21.94389 4.2108e+06
-8.425297 -2.905684 -20.63579 4.2108e+06
-8.425297 -2.371263 -20.65386 4.2108e+06
-8.425297 -1.836843 -20.67197 4.2108e+06
-8.425297 -1.302421 -20.69004 4.2108e+06
-8.425297 -0.7679985 -20.70815 4.2108e+06
-8.425297 -0.2335775 -20.72622 4.2108e+06
-8.425297 0.3008447 -20.74433 4.2108e+06
-8.425297 0.8352649 -20.7624 4.2108e+06
-8.425297 1.369687 -20.78052 4.2108e+06
-8.425297 1.904107 -20.79858 4.2108e+06
-8.425297 2.438529 -20.8167 4.2108e+06
-8.425297 2.97295 -20.83477 4.2108e+06
-8.425297 3.507371 -20.85288 4.2108e+06
-8.425297 4.041793 -20.87095 4.2108e+06
-8.425297 4.576213 -20.88906 4.2108e+06
-8.425297 5.110635 -20.90713 4.2108e+06
-8.425297 5.645056 -20.92524 4.2108e+06
-8.425297 6.179481 -20.94331 4.2108e+06
-8.425297 6.7139 -20.96143 4.2108e+06
-8.425297 -2.696658 -19.45216 4.2108e+06
-8.425297 -2.105983 -19.47218 4.2108e+06
-8.425297 -1.515307 -19.49215 4.2108e+06
-8.425297 -0.9246294 -19.51217 4.2108e+06
-8.425297 -0.3339541 -19.53214 4.2108e+06
-8.425297 0.2567232 -19.55216 4.2108e+06
-8.425297 0.847398 -19.57213 4.2108e+06
-8.425297 1.438075 -19.59215 4.2108e+06
-8.425297 2.02875 -19.61212 4.2108e+06
-8.425297 2.619427 -19.63214 4.2108e+06
-8.425297 3.210103 -19.65211 4.2108e+06
-8.425297 3.800779 -19.67213 4.2108e+06
-8.425297 4.391456 -19.6921 4.2108e+06
-8.425297 4.98213 -19.71212 4.2108e+06
-8.425297 5.572807 -19.73209 4.2108e+06
-8.425297 6.163483 -19.75211 4.2108e+06
-8.425297 6.754163 -19.77208 4.2108e+06
-8.425297 -3.098619 -17.9677 4.2108e+06
-8.425297 -2.438452 -17.99008 4.2108e+06
-8.425297 -1.778284 -18.0124 4.2108e+06
-8.425297 -1.118115 -18.03477 4.2108e+06
-8.425297 -0.4579487 -18.05709 4.2108e+06
-8.425297 0.20222 -18.07947 4.2108e+06
-8.425297 0.862386 -18.10179 4.2108e+06
-8.425297 1.522555 -18.12416 4.2108e+06
-8.425297 2.182721 -18.14648 4.2108e+06
-8.425297 2.842889 -18.16886 4.2108e+06
-8.425297 3.503057 -18.19118 4.2108e+06
-8.425297 4.163223 -18.21356 4.2108e+06
-8.425297 4.823392 -18.23588 4.2108e+06
-8.425297 5.483557 -18.25825 4.2108e+06
-8.425297 6.143726 -18.28057 4.2108e+06
