VERSION 0.7
FIELDS x y z rgb
SIZE 4 4 4 4
TYPE F F F F
COUNT 1 1 1 1
WIDTH 456
HEIGHT 1
VIEWPOINT 0 0 0 1 0 0 0
POINTS 456
DATA ascii 
-16.38196 -2.953028 -24 4.2108e+06
-15.74807 -2.953028 -24 4.2108e+06
-15.77459 -2.582835 -24 4.2108e+06
-15.80114 -2.211462 -24 4.2108e+06
-15.82783 -1.838922 -24 4.2108e+06
-15.85455 -1.465194 -24 4.2108e+06
-15.88141 -1.090288 -24 4.2108e+06
-15.90829 -0.7141817 -24 4.2108e+06
-15.93533 -0.3368831 -24 4.2108e+06
-15.96238 0.04162216 -24 4.2108e+06
-15.98959 0.4213347 -24 4.2108e+06
-16.01682 0.8022622 -24 4.2108e+06
-16.0442 1.184412 -24 4.2108e+06
-16.07161 1.567786 -24 4.2108e+06
-16.09916 1.952397 -24 4.2108e+06
-16.12674 2.338241 -24 4.2108e+06
-16.15448 2.725335 -24 4.2108e+06
-16.18224 3.113673 -24 4.2108e+06
-16.21015 3.503276 -24 4.2108e+06
-16.23809 3.894132 -24 4.2108e+06
-16.26619 4.286269 -24 4.2108e+06
-16.29431 4.67967 -24 4.2108e+06
-16.32259 5.074364 -24 4.2108e+06
-16.35089 5.47033 -24 4.2108e+06
-16.37936 5.867608 -24 4.2108e+06
-15.11418 -2.953028 -24 4.2108e+06
-15.1397 -2.582835 -24 4.2108e+06
-15.16525 -2.211461 -24 4.2108e+06
-15.19093 -1.838923 -24 4.2108e+06
-15.21664 -1.465194 -24 4.2108e+06
-15.24249 -1.090288 -24 4.2108e+06
-15.26836 -0.7141817 -24 4.2108e+06
-15.29437 -0.3368831 -24 4.2108e+06
-15.32041 0.04162204 -24 4.2108e+06
-15.34659 0.4213347 -24 4.2108e+06
-15.37279 0.8022622 -24 4.2108e+06
-15.39914 1.184412 -24 4.2108e+06
-15.42551 1.567786 -24 4.2108e+06
-15.45203 1.952397 -24 4.2108e+06
-15.47856 2.33824 -24 4.2108e+06
-15.50525 2.725335 -24 4.2108e+06
-15.53197 3.113673 -24 4.2108e+06
-15.55883 3.503276 -24 4.2108e+06
-15.58571 3.894132 -24 4.2108e+06
-15.61275 4.286269 -24 4.2108e+06
-15.63981 4.67967 -24 4.2108e+06
-15.66702 5.074364 -24 4.2108e+06
-15.69426 5.470329 -24 4.2108e+06
-15.72165 5.867607 -24 4.2108e+06
-15.74906 6.266166 -24 4.2108e+06
-15.77664 6.666053 -24 4.2108e+06
-14.48029 -2.953028 -24 4.2108e+06
-14.50481 -2.582835 -24 4.2108e+06
-14.52936 -2.211461 -24 4.2108e+06
-14.55403 -1.838923 -24 4.2108e+06
-14.57873 -1.465194 -24 4.2108e+06
-14.60357 -1.090288 -24 4.2108e+06
-14.62842 -0.7141817 -24 4.2108e+06
-14.65342 -0.3368831 -24 4.2108e+06
-14.67843 0.04162204 -24 4.2108e+06
-14.70358 0.4213347 -24 4.2108e+06
-14.72876 0.8022622 -24 4.2108e+06
-14.75407 1.184412 -24 4.2108e+06
-14.77941 1.567786 -24 4.2108e+06
-14.80489 1.952397 -24 4.2108e+06
-14.83039 2.33824 -24 4.2108e+06
-14.85603 2.725335 -24 4.2108e+06
-14.88169 3.113673 -24 4.2108e+06
-14.9075 3.503276 -24 4.2108e+06
-14.93333 3.894132 -24 4.2108e+06
-14.95931 4.286269 -24 4.2108e+06
-14.98531 4.679669 -24 4.2108e+06
-15.01145 5.074364 -24 4.2108e+06
-15.03762 5.47033 -24 4.2108e+06
-15.06394 5.867608 -24 4.2108e+06
-15.09028 6.266167 -24 4.2108e+06
-15.11677 6.666052 -24 4.2108e+06
-13.8464 -2.953028 -24 4.2108e+06
-13.86992 -2.582835 -24 4.2108e+06
-13.89346 -2.211461 -24 4.2108e+06
-13.91713 -1.838922 -24 4.2108e+06
-13.94082 -1.465194 -24 4.2108e+06
-13.96465 -1.090288 -24 4.2108e+06
-13.98849 -0.7141817 -24 4.2108e+06
-14.01246 -0.3368828 -24 4.2108e+06
-14.03646 0.04162204 -24 4.2108e+06
-14.06058 0.4213347 -24 4.2108e+06
-14.08473 0.8022622 -24 4.2108e+06
-14.10901 1.184412 -24 4.2108e+06
-14.13331 1.567786 -24 4.2108e+06
-14.15775 1.952397 -24 4.2108e+06
-14.18221 2.33824 -24 4.2108e+06
-14.2068 2.725335 -24 4.2108e+06
-14.23142 3.113673 -24 4.2108e+06
-14.25617 3.503276 -24 4.2108e+06
-14.28095 3.894132 -24 4.2108e+06
-14.30587 4.286269 -24 4.2108e+06
-14.3308 4.67967 -24 4.2108e+06
-14.35588 5.074364 -24 4.2108e+06
-14.38098 5.47033 -24 4.2108e+06
-14.40623 5.867608 -24 4.2108e+06
-14.43149 6.266166 -24 4.2108e+06
-14.4569 6.666054 -24 4.2108e+06
-13.21251 -2.953028 -24 4.2108e+06
-13.23503 -2.582835 -24 4.2108e+06
-13.25757 -2.211461 -24 4.2108e+06
-13.28024 -1.838922 -24 4.2108e+06
-13.30292 -1.465194 -24 4.2108e+06
-13.32572 -1.090288 -24 4.2108e+06
-13.34855 -0.7141817 -24 4.2108e+06
-13.37151 -0.3368831 -24 4.2108e+06
-13.39448 0.04162204 -24 4.2108e+06
-13.41758 0.4213347 -24 4.2108e+06
-13.4407 0.8022622 -24 4.2108e+06
-13.46394 1.184412 -24 4.2108e+06
-13.48721 1.567786 -24 4.2108e+06
-13.51061 1.952397 -24 4.2108e+06
-13.53403 2.33824 -24 4.2108e+06
-13.55758 2.725335 -24 4.2108e+06
-13.58115 3.113673 -24 4.2108e+06
-13.60485 3.503276 -24 4.2108e+06
-13.62857 3.894132 -24 4.2108e+06
-13.65242 4.286269 -24 4.2108e+06
-13.6763 4.67967 -24 4.2108e+06
-13.70031 5.074364 -24 4.2108e+06
-13.72435 5.470329 -24 4.2108e+06
-13.74851 5.867608 -24 4.2108e+06
-13.7727 6.266166 -24 4.2108e+06
-13.79703 6.666053 -24 4.2108e+06
-12.57862 -2.953028 -24 4.2108e+06
-12.60014 -2.582835 -24 4.2108e+06
-12.62168 -2.211461 -24 4.2108e+06
-12.64334 -1.838922 -24 4.2108e+06
-12.66501 -1.465194 -24 4.2108e+06
-12.6868 -1.090287 -24 4.2108e+06
-12.70862 -0.7141819 -24 4.2108e+06
-12.73055 -0.3368833 -24 4.2108e+06
-12.7525 0.04162204 -24 4.2108e+06
-12.77457 0.4213347 -24 4.2108e+06
-12.79666 0.8022622 -24 4.2108e+06
-12.81888 1.184412 -24 4.2108e+06
-12.84111 1.567786 -24 4.2108e+06
-12.86347 1.952397 -24 4.2108e+06
-12.88585 2.33824 -24 4.2108e+06
-12.90835 2.725335 -24 4.2108e+06
-12.93087 3.113673 -24 4.2108e+06
-12.95352 3.503276 -24 4.2108e+06
-12.97619 3.894132 -24 4.2108e+06
-12.99898 4.286269 -24 4.2108e+06
-13.0218 4.67967 -24 4.2108e+06
-13.04474 5.074364 -24 4.2108e+06
-13.06771 5.47033 -24 4.2108e+06
-13.0908 5.867608 -24 4.2108e+06
-13.11392 6.266166 -24 4.2108e+06
-13.13716 6.666053 -24 4.2108e+06
-11.94473 -2.953028 -24 4.2108e+06
-11.96525 -2.582835 -24 4.2108e+06
-11.98579 -2.211461 -24 4.2108e+06
-12.00644 -1.838922 -24 4.2108e+06
-12.0271 -1.465194 -24 4.2108e+06
-12.04788 -1.090288 -24 4.2108e+06
-12.06868 -0.7141817 -24 4.2108e+06
-12.08959 -0.3368828 -24 4.2108e+06
-12.11052 0.04162216 -24 4.2108e+06
-12.13157 0.4213347 -24 4.2108e+06
-12.15264 0.8022622 -24 4.2108e+06
-12.17382 1.184412 -24 4.2108e+06
-12.19502 1.567786 -24 4.2108e+06
-12.21633 1.952397 -24 4.2108e+06
-12.23767 2.33824 -24 4.2108e+06
-12.25912 2.725335 -24 4.2108e+06
-12.2806 3.113673 -24 4.2108e+06
-12.3022 3.503276 -24 4.2108e+06
-12.32381 3.894132 -24 4.2108e+06
-12.34554 4.286269 -24 4.2108e+06
-12.3673 4.67967 -24 4.2108e+06
-12.38918 5.074364 -24 4.2108e+06
-12.41107 5.470329 -24 4.2108e+06
-12.43309 5.867607 -24 4.2108e+06
-12.45513 6.266167 -24 4.2108e+06
-12.47729 6.666052 -24 4.2108e+06
-11.31084 -2.953028 -24 4.2108e+06
-11.33036 -2.582835 -24 4.2108e+06
-11.34989 -2.211461 -24 4.2108e+06
-11.36954 -1.838922 -24 4.2108e+06
-11.3892 -1.465194 -24 4.2108e+06
-11.40896 -1.090288 -24 4.2108e+06
-11.42875 -0.7141817 -24 4.2108e+06
-11.44864 -0.3368828 -24 4.2108e+06
-11.46855 0.04162216 -24 4.2108e+06
-11.48857 0.4213347 -24 4.2108e+06
-11.5086 0.8022622 -24 4.2108e+06
-11.52875 1.184412 -24 4.2108e+06
-11.54892 1.567786 -24 4.2108e+06
-11.5692 1.952397 -24 4.2108e+06
-11.58949 2.33824 -24 4.2108e+06
-11.6099 2.725335 -24 4.2108e+06
-11.63033 3.113673 -24 4.2108e+06
-11.65087 3.503276 -24 4.2108e+06
-11.67143 3.894132 -24 4.2108e+06
-11.6921 4.286269 -24 4.2108e+06
-11.7128 4.67967 -24 4.2108e+06
-11.73361 5.074364 -24 4.2108e+06
-11.75443 5.47033 -24 4.2108e+06
-11.77538 5.867608 -24 4.2108e+06
-11.79634 6.266166 -24 4.2108e+06
-11.81743 6.666053 -24 4.2108e+06
-10.67695 -2.953028 -24 4.2108e+06
-10.69547 -2.582835 -24 4.2108e+06
-10.714 -2.211461 -24 4.2108e+06
-10.73264 -1.838922 -24 4.2108e+06
-10.75129 -1.465194 -24 4.2108e+06
-10.77004 -1.090288 -24 4.2108e+06
-10.78881 -0.7141817 -24 4.2108e+06
-10.80768 -0.3368828 -24 4.2108e+06
-10.82657 0.04162216 -24 4.2108e+06
-10.84556 0.4213347 -24 4.2108e+06
-10.86457 0.8022622 -24 4.2108e+06
-10.88369 1.184412 -24 4.2108e+06
-10.90282 1.567786 -24 4.2108e+06
-10.92206 1.952397 -24 4.2108e+06
-10.94131 2.33824 -24 4.2108e+06
-10.96067 2.725335 -24 4.2108e+06
-10.98005 3.113673 -24 4.2108e+06
-10.99954 3.503276 -24 4.2108e+06
-11.01905 3.894132 -24 4.2108e+06
-11.03866 4.286269 -24 4.2108e+06
-11.05829 4.67967 -24 4.2108e+06
-11.07804 5.074364 -24 4.2108e+06
-11.09779 5.470329 -24 4.2108e+06
-11.11767 5.867608 -24 4.2108e+06
-11.13756 6.266167 -24 4.2108e+06
-11.15756 6.666053 -24 4.2108e+06
-10.04306 -2.953028 -24 4.2108e+06
-10.06058 -2.582835 -24 4.2108e+06
-10.07811 -2.211461 -24 4.2108e+06
-10.09574 -1.838922 -24 4.2108e+06
-10.11338 -1.465194 -24 4.2108e+06
-10.13112 -1.090288 -24 4.2108e+06
-10.14887 -0.7141817 -24 4.2108e+06
-10.16673 -0.3368831 -24 4.2108e+06
-10.18459 0.04162204 -24 4.2108e+06
-10.20256 0.4213347 -24 4.2108e+06
-10.22054 0.8022622 -24 4.2108e+06
-10.23862 1.184412 -24 4.2108e+06
-10.25672 1.567786 -24 4.2108e+06
-10.27492 1.952397 -24 4.2108e+06
-10.29313 2.33824 -24 4.2108e+06
-10.31145 2.725335 -24 4.2108e+06
-10.32978 3.113673 -24 4.2108e+06
-10.34822 3.503276 -24 4.2108e+06
-10.36667 3.894132 -24 4.2108e+06
-10.38522 4.286269 -24 4.2108e+06
-10.40379 4.679669 -24 4.2108e+06
-10.42247 5.074364 -24 4.2108e+06
-10.44116 5.47033 -24 4.2108e+06
-10.45996 5.867608 -24 4.2108e+06
-10.47877 6.266166 -24 4.2108e+06
-10.49769 6.666053 -24 4.2108e+06
-9.409175 -2.953028 -24 4.2108e+06
-9.425691 -2.582835 -24 4.2108e+06
-9.442219 -2.211461 -24 4.2108e+06
-9.458839 -1.838922 -24 4.2108e+06
-9.475472 -1.465194 -24 4.2108e+06
-9.492198 -1.090288 -24 4.2108e+06
-9.508938 -0.7141817 -24 4.2108e+06
-9.525771 -0.3368831 -24 4.2108e+06
-9.542617 0.04162204 -24 4.2108e+06
-9.559556 0.4213347 -24 4.2108e+06
-9.57651 0.8022622 -24 4.2108e+06
-9.59356 1.184412 -24 4.2108e+06
-9.610622 1.567786 -24 4.2108e+06
-9.627781 1.952397 -24 4.2108e+06
-9.644954 2.33824 -24 4.2108e+06
-9.662224 2.725335 -24 4.2108e+06
-9.679507 3.113673 -24 4.2108e+06
-9.69689 3.503276 -24 4.2108e+06
-9.714285 3.894132 -24 4.2108e+06
-9.731779 4.286269 -24 4.2108e+06
-9.749288 4.679669 -24 4.2108e+06
-9.766897 5.074364 -24 4.2108e+06
-9.784521 5.47033 -24 4.2108e+06
-9.802244 5.867608 -24 4.2108e+06
-9.819983 6.266166 -24 4.2108e+06
-9.837824 6.666053 -24 4.2108e+06
-8.775285 -2.953028 -24 4.2108e+06
-8.7908 -2.582835 -24 4.2108e+06
-8.806326 -2.211461 -24 4.2108e+06
-8.821939 -1.838922 -24 4.2108e+06
-8.837564 -1.465194 -24 4.2108e+06
-8.853277 -1.090288 -24 4.2108e+06
-8.869002 -0.7141817 -24 4.2108e+06
-8.884814 -0.3368828 -24 4.2108e+06
-8.900639 0.04162216 -24 4.2108e+06
-8.916553 0.4213347 -24 4.2108e+06
-8.93248 0.8022622 -24 4.2108e+06
-8.948495 1.184412 -24 4.2108e+06
-8.964524 1.567786 -24 4.2108e+06
-8.980642 1.952397 -24 4.2108e+06
-8.996776 2.33824 -24 4.2108e+06
-9.012998 2.725335 -24 4.2108e+06
-9.029234 3.113673 -24 4.2108e+06
-9.045562 3.503276 -24 4.2108e+06
-9.061904 3.894132 -24 4.2108e+06
-9.078339 4.286269 -24 4.2108e+06
-9.094786 4.67967 -24 4.2108e+06
-9.111327 5.074364 -24 4.2108e+06
-9.127882 5.470329 -24 4.2108e+06
-9.144532 5.867608 -24 4.2108e+06
-9.161197 6.266166 -24 4.2108e+06
-9.177955 6.666052 -24 4.2108e+06
-8.388745 -3.051872 -23.78283 4.2108e+06
-8.388745 -2.666371 -23.79589 4.2108e+06
-8.388745 -2.280869 -23.80893 4.2108e+06
-8.388745 -1.895366 -23.82199 4.2108e+06
-8.388745 -1.509865 -23.83503 4.2108e+06
-8.388745 -1.124364 -23.84809 4.2108e+06
-8.388745 -0.7388618 -23.86113 4.2108e+06
-8.388745 -0.3533595 -23.87419 4.2108e+06
-8.388745 0.03214216 -23.88723 4.2108e+06
-8.388745 0.4176447 -23.90029 4.2108e+06
-8.388745 0.8031457 -23.91333 4.2108e+06
-8.388745 1.188648 -23.92639 4.2108e+06
-8.388745 1.574149 -23.93943 4.2108e+06
-8.388745 1.959652 -23.95249 4.2108e+06
-8.388745 2.345153 -23.96553 4.2108e+06
-8.388745 2.730655 -23.97859 4.2108e+06
-8.388745 3.116157 -23.99163 4.2108e+06
-8.394236 3.503276 -24 4.2108e+06
-8.409523 3.894132 -24 4.2108e+06
-8.424896 4.286269 -24 4.2108e+06
-8.440283 4.67967 -24 4.2108e+06
-8.455758 5.074364 -24 4.2108e+06
-8.471245 5.47033 -24 4.2108e+06
-8.48682 5.867608 -24 4.2108e+06
-8.502409 6.266166 -24 4.2108e+06
-8.518086 6.666053 -24 4.2108e+06
-8.388745 -2.917212 -23.183 4.2108e+06
-8.388745 -2.503155 -23.197 4.2108e+06
-8.388745 -2.089097 -23.21103 4.2108e+06
-8.388745 -1.67504 -23.22503 4.2108e+06
-8.388745 -1.260983 -23.23906 4.2108e+06
-8.388745 -0.8469255 -23.25306 4.2108e+06
-8.388745 -0.4328673 -23.2671 4.2108e+06
-8.388745 -0.01881027 -23.2811 4.2108e+06
-8.388745 0.3952479 -23.29513 4.2108e+06
-8.388745 0.8093047 -23.30913 4.2108e+06
-8.388745 1.223363 -23.32316 4.2108e+06
-8.388745 1.637419 -23.33716 4.2108e+06
-8.388745 2.051478 -23.3512 4.2108e+06
-8.388745 2.465535 -23.3652 4.2108e+06
-8.388745 2.879592 -23.37923 4.2108e+06
-8.388745 3.29365 -23.39323 4.2108e+06
-8.388745 3.707706 -23.40726 4.2108e+06
-8.388745 4.121765 -23.42126 4.2108e+06
-8.388745 4.535821 -23.4353 4.2108e+06
-8.388745 4.949883 -23.4493 4.2108e+06
-8.388745 5.363938 -23.46333 4.2108e+06
-8.388745 5.777996 -23.47733 4.2108e+06
-8.388745 6.192053 -23.49136 4.2108e+06
-8.388745 6.606111 -23.50536 4.2108e+06
-8.388745 -2.761009 -22.48716 4.2108e+06
-8.388745 -2.313825 -22.50231 4.2108e+06
-8.388745 -1.866644 -22.51743 4.2108e+06
-8.388745 -1.419462 -22.53259 4.2108e+06
-8.388745 -0.9722798 -22.54771 4.2108e+06
-8.388745 -0.5250969 -22.56286 4.2108e+06
-8.388745 -0.07791507 -22.57798 4.2108e+06
-8.388745 0.3692678 -22.59314 4.2108e+06
-8.388745 0.816449 -22.60826 4.2108e+06
-8.388745 1.263632 -22.62341 4.2108e+06
-8.388745 1.710813 -22.63853 4.2108e+06
-8.388745 2.157996 -22.65369 4.2108e+06
-8.388745 2.605178 -22.66881 4.2108e+06
-8.388745 3.05236 -22.68397 4.2108e+06
-8.388745 3.499542 -22.69909 4.2108e+06
-8.388745 3.946723 -22.71424 4.2108e+06
-8.388745 4.393907 -22.72936 4.2108e+06
-8.388745 4.841087 -22.74452 4.2108e+06
-8.388745 5.288273 -22.75964 4.2108e+06
-8.388745 5.735454 -22.77479 4.2108e+06
-8.388745 6.182636 -22.78991 4.2108e+06
-8.388745 6.629818 -22.80507 4.2108e+06
-8.388745 -3.063705 -21.65387 4.2108e+06
-8.388745 -2.577636 -21.67034 4.2108e+06
-8.388745 -2.091569 -21.68677 4.2108e+06
-8.388745 -1.605503 -21.70325 4.2108e+06
-8.388745 -1.119435 -21.71968 4.2108e+06
-8.388745 -0.6333661 -21.73616 4.2108e+06
-8.388745 -0.1472991 -21.75259 4.2108e+06
-8.388745 0.3387693 -21.76906 4.2108e+06
-8.388745 0.8248359 -21.7855 4.2108e+06
-8.388745 1.310904 -21.80197 4.2108e+06
-8.388745 1.796971 -21.81841 4.2108e+06
-8.388745 2.283039 -21.83488 4.2108e+06
-8.388745 2.769106 -21.85131 4.2108e+06
-8.388745 3.255173 -21.86779 4.2108e+06
-8.388745 3.741242 -21.88422 4.2108e+06
-8.388745 4.227308 -21.9007 4.2108e+06
-8.388745 4.713376 -21.91713 4.2108e+06
-8.388745 5.199444 -21.93361 4.2108e+06
-8.388745 5.685514 -21.95004 4.2108e+06
-8.388745 6.17158 -21.96651 4.2108e+06
-8.388745 6.657648 -21.98295 4.2108e+06
-8.388745 -2.891697 -20.67989 4.2108e+06
-8.388745 -2.359338 -20.6979 4.2108e+06
-8.388745 -1.826979 -20.71594 4.2108e+06
-8.388745 -1.294619 -20.73394 4.2108e+06
-8.388745 -0.7622583 -20.75198 4.2108e+06
-8.388745 -0.2298989 -20.76998 4.2108e+06
-8.388745 0.3024616 -20.78802 4.2108e+06
-8.388745 0.8348203 -20.80602 4.2108e+06
-8.388745 1.367181 -20.82407 4.2108e+06
-8.388745 1.899539 -20.84206 4.2108e+06
-8.388745 2.4319 -20.86011 4.2108e+06
-8.388745 2.964259 -20.87811 4.2108e+06
-8.388745 3.496619 -20.89615 4.2108e+06
-8.388745 4.028979 -20.91415 4.2108e+06
-8.388745 4.561337 -20.93219 4.2108e+06
-8.388745 5.093698 -20.95019 4.2108e+06
-8.388745 5.626058 -20.96824 4.2108e+06
-8.388745 6.158421 -20.98623 4.2108e+06
-8.388745 6.690778 -21.00428 4.2108e+06
-8.388745 -2.683479 -19.50083 4.2108e+06
-8.388745 -2.095082 -19.52077 4.2108e+06
-8.388745 -1.506684 -19.54067 4.2108e+06
-8.388745 -0.9182851 -19.56061 4.2108e+06
-8.388745 -0.3298886 -19.5805 4.2108e+06
-8.388745 0.2585102 -19.60044 4.2108e+06
-8.388745 0.8469066 -19.62034 4.2108e+06
-8.388745 1.435305 -19.64028 4.2108e+06
-8.388745 2.023702 -19.66018 4.2108e+06
-8.388745 2.6121 -19.68012 4.2108e+06
-8.388745 3.200497 -19.70001 4.2108e+06
-8.388745 3.788894 -19.71996 4.2108e+06
-8.388745 4.377293 -19.73985 4.2108e+06
-8.388745 4.965689 -19.75979 4.2108e+06
-8.388745 5.554088 -19.77969 4.2108e+06
-8.388745 6.142484 -19.79963 4.2108e+06
-8.388745 6.730886 -19.81952 4.2108e+06
-8.388745 -3.083888 -18.02211 4.2108e+06
-8.388745 -2.426268 -18.0444 4.2108e+06
-8.388745 -1.768647 -18.06663 4.2108e+06
-8.388745 -1.111025 -18.08892 4.2108e+06
-8.388745 -0.4534047 -18.11115 4.2108e+06
-8.388745 0.2042173 -18.13344 4.2108e+06
-8.388745 0.8618368 -18.15567 4.2108e+06
-8.388745 1.519459 -18.17796 4.2108e+06
-8.388745 2.177078 -18.2002 4.2108e+06
-8.388745 2.8347 -18.22248 4.2108e+06
-8.388745 3.492321 -18.24472 4.2108e+06
-8.388745 4.14994 -18.26701 4.2108e+06
-8.388745 4.807563 -18.28924 4.2108e+06
-8.388745 5.465181 -18.31153 4.2108e+06
-8.388745 6.122804 -18.33377 4.2108e+06
-8.388745 6.780423 -18.35605 4.2108e+06
