VERSION 0.7
FIELDS x y z rgb
SIZE 4 4 4 4
TYPE F F F F
COUNT 1 1 1 1
WIDTH 440
HEIGHT 1
VIEWPOINT 0 0 0 1 0 0 0
POINTS 440
DATA ascii 
-15.11418 -2.953028 -24 4.2108e+06
-15.1397 -2.582835 -24 4.2108e+06
-15.16525 -2.211461 -24 4.2108e+06
-15.19093 -1.838923 -24 4.2108e+06
-15.21664 -1.465194 -24 4.2108e+06
-15.24249 -1.090288 -24 4.2108e+06
-14.48029 -2.953028 -24 4.2108e+06
-14.50481 -2.582835 -24 4.2108e+06
-14.52936 -2.211461 -24 4.2108e+06
-14.55403 -1.838923 -24 4.2108e+06
-14.57873 -1.465194 -24 4.2108e+06
-14.60357 -1.090288 -24 4.2108e+06
-14.62842 -0.7141817 -24 4.2108e+06
-14.65342 -0.3368831 -24 4.2108e+06
-14.67843 0.04162204 -24 4.2108e+06
-14.70358 0.4213347 -24 4.2108e+06
-14.72876 0.8022622 -24 4.2108e+06
-14.75407 1.184412 -24 4.2108e+06
-14.77941 1.567786 -24 4.2108e+06
-14.80489 1.952397 -24 4.2108e+06
-14.83039 2.33824 -24 4.2108e+06
-14.85603 2.725335 -24 4.2108e+06
-14.88169 3.113673 -24 4.2108e+06
-14.9075 3.503276 -24 4.2108e+06
-14.93333 3.894132 -24 4.2108e+06
-14.95931 4.286269 -24 4.2108e+06
-14.98531 4.679669 -24 4.2108e+06
-15.01145 5.074364 -24 4.2108e+06
-15.03762 5.47033 -24 4.2108e+06
-15.06394 5.867608 -24 4.2108e+06
-15.09028 6.266167 -24 4.2108e+06
-15.11677 6.666052 -24 4.2108e+06
-13.8464 -2.953028 -24 4.2108e+06
-13.86992 -2.582835 -24 4.2108e+06
-13.89346 -2.211461 -24 4.2108e+06
-13.91713 -1.838922 -24 4.2108e+06
-13.94082 -1.465194 -24 4.2108e+06
-13.96465 -1.090288 -24 4.2108e+06
-13.98849 -0.7141817 -24 4.2108e+06
-14.01246 -0.3368828 -24 4.2108e+06
-14.03646 0.04162204 -24 4.2108e+06
-14.06058 0.4213347 -24 4.2108e+06
-14.08473 0.8022622 -24 4.2108e+06
-14.10901 1.184412 -24 4.2108e+06
-14.13331 1.567786 -24 4.2108e+06
-14.15775 1.952397 -24 4.2108e+06
-14.18221 2.33824 -24 4.2108e+06
-14.2068 2.725335 -24 4.2108e+06
-14.23142 3.113673 -24 4.2108e+06
-14.25617 3.503276 -24 4.2108e+06
-14.28095 3.894132 -24 4.2108e+06
-14.30587 4.286269 -24 4.2108e+06
-14.3308 4.67967 -24 4.2108e+06
-14.35588 5.074364 -24 4.2108e+06
-14.38098 5.47033 -24 4.2108e+06
-14.40623 5.867608 -24 4.2108e+06
-14.43149 6.266166 -24 4.2108e+06
-14.4569 6.666054 -24 4.2108e+06
-13.21251 -2.953028 -24 4.2108e+06
-13.23503 -2.582835 -24 4.2108e+06
-13.25757 -2.211461 -24 4.2108e+06
-13.28024 -1.838922 -24 4.2108e+06
-13.30292 -1.465194 -24 4.2108e+06
-13.32572 -1.090288 -24 4.2108e+06
-13.34855 -0.7141817 -24 4.2108e+06
-13.37151 -0.3368831 -24 4.2108e+06
-13.39448 0.04162204 -24 4.2108e+06
-13.41758 0.4213347 -24 4.2108e+06
-13.4407 0.8022622 -24 4.2108e+06
-13.46394 1.184412 -24 4.2108e+06
-13.48721 1.567786 -24 4.2108e+06
-13.51061 1.952397 -24 4.2108e+06
-13.53403 2.33824 -24 4.2108e+06
-13.55758 2.725335 -24 4.2108e+06
-13.58115 3.113673 -24 4.2108e+06
-13.60485 3.503276 -24 4.2108e+06
-13.62857 3.894132 -24 4.2108e+06
-13.65242 4.286269 -24 4.2108e+06
-13.6763 4.67967 -24 4.2108e+06
-13.70031 5.074364 -24 4.2108e+06
-13.72435 5.470329 -24 4.2108e+06
-13.74851 5.867608 -24 4.2108e+06
-13.7727 6.266166 -24 4.2108e+06
-13.79703 6.666053 -24 4.2108e+06
-12.57862 -2.953028 -24 4.2108e+06
-12.60014 -2.582835 -24 4.2108e+06
-12.62168 -2.211461 -24 4.2108e+06
-12.64334 -1.838922 -24 4.2108e+06
-12.66501 -1.465194 -24 4.2108e+06
-12.6868 -1.090287 -24 4.2108e+06
-12.70862 -0.7141819 -24 4.2108e+06
-12.73055 -0.3368833 -24 4.2108e+06
-12.7525 0.04162204 -24 4.2108e+06
-12.77457 0.4213347 -24 4.2108e+06
-12.79666 0.8022622 -24 4.2108e+06
-12.81888 1.184412 -24 4.2108e+06
-12.84111 1.567786 -24 4.2108e+06
-12.86347 1.952397 -24 4.2108e+06
-12.88585 2.33824 -24 4.2108e+06
-12.90835 2.725335 -24 4.2108e+06
-12.93087 3.113673 -24 4.2108e+06
-12.95352 3.503276 -24 4.2108e+06
-12.97619 3.894132 -24 4.2108e+06
-12.99898 4.286269 -24 4.2108e+06
-13.0218 4.67967 -24 4.2108e+06
-13.04474 5.074364 -24 4.2108e+06
-13.06771 5.47033 -24 4.2108e+06
-13.0908 5.867608 -24 4.2108e+06
-13.11392 6.266166 -24 4.2108e+06
-13.13716 6.666053 -24 4.2108e+06
-11.94473 -2.953028 -24 4.2108e+06
-11.96525 -2.582835 -24 4.2108e+06
-11.98579 -2.211461 -24 4.2108e+06
-12.00644 -1.838922 -24 4.2108e+06
-12.0271 -1.465194 -24 4.2108e+06
-12.04788 -1.090288 -24 4.2108e+06
-12.06868 -0.7141817 -24 4.2108e+06
-12.08959 -0.3368828 -24 4.2108e+06
-12.11052 0.04162216 -24 4.2108e+06
-12.13157 0.4213347 -24 4.2108e+06
-12.15264 0.8022622 -24 4.2108e+06
-12.17382 1.184412 -24 4.2108e+06
-12.19502 1.567786 -24 4.2108e+06
-12.21633 1.952397 -24 4.2108e+06
-12.23767 2.33824 -24 4.2108e+06
-12.25912 2.725335 -24 4.2108e+06
-12.2806 3.113673 -24 4.2108e+06
-12.3022 3.503276 -24 4.2108e+06
-12.32381 3.894132 -24 4.2108e+06
-12.34554 4.286269 -24 4.2108e+06
-12.3673 4.67967 -24 4.2108e+06
-12.38918 5.074364 -24 4.2108e+06
-12.41107 5.470329 -24 4.2108e+06
-12.43309 5.867607 -24 4.2108e+06
-12.45513 6.266167 -24 4.2108e+06
-12.47729 6.666052 -24 4.2108e+06
-11.31084 -2.953028 -24 4.2108e+06
-11.33036 -2.582835 -24 4.2108e+06
-11.34989 -2.211461 -24 4.2108e+06
-11.36954 -1.838922 -24 4.2108e+06
-11.3892 -1.465194 -24 4.2108e+06
-11.40896 -1.090288 -24 4.2108e+06
-11.42875 -0.7141817 -24 4.2108e+06
-11.44864 -0.3368828 -24 4.2108e+06
-11.46855 0.04162216 -24 4.2108e+06
-11.48857 0.4213347 -24 4.2108e+06
-11.5086 0.8022622 -24 4.2108e+06
-11.52875 1.184412 -24 4.2108e+06
-11.54892 1.567786 -24 4.2108e+06
-11.5692 1.952397 -24 4.2108e+06
-11.58949 2.33824 -24 4.2108e+06
-11.6099 2.725335 -24 4.2108e+06
-11.63033 3.113673 -24 4.2108e+06
-11.65087 3.503276 -24 4.2108e+06
-11.67143 3.894132 -24 4.2108e+06
-11.6921 4.286269 -24 4.2108e+06
-11.7128 4.67967 -24 4.2108e+06
-11.73361 5.074364 -24 4.2108e+06
-11.75443 5.47033 -24 4.2108e+06
-11.77538 5.867608 -24 4.2108e+06
-11.79634 6.266166 -24 4.2108e+06
-11.81743 6.666053 -24 4.2108e+06
-10.67695 -2.953028 -24 4.2108e+06
-10.69547 -2.582835 -24 4.2108e+06
-10.714 -2.211461 -24 4.2108e+06
-10.73264 -1.838922 -24 4.2108e+06
-10.75129 -1.465194 -24 4.2108e+06
-10.77004 -1.090288 -24 4.2108e+06
-10.78881 -0.7141817 -24 4.2108e+06
-10.80768 -0.3368828 -24 4.2108e+06
-10.82657 0.04162216 -24 4.2108e+06
-10.84556 0.4213347 -24 4.2108e+06
-10.86457 0.8022622 -24 4.2108e+06
-10.88369 1.184412 -24 4.2108e+06
-10.90282 1.567786 -24 4.2108e+06
-10.92206 1.952397 -24 4.2108e+06
-10.94131 2.33824 -24 4.2108e+06
-10.96067 2.725335 -24 4.2108e+06
-10.98005 3.113673 -24 4.2108e+06
-10.99954 3.503276 -24 4.2108e+06
-11.01905 3.894132 -24 4.2108e+06
-11.03866 4.286269 -24 4.2108e+06
-11.05829 4.67967 -24 4.2108e+06
-11.07804 5.074364 -24 4.2108e+06
-11.09779 5.470329 -24 4.2108e+06
-11.11767 5.867608 -24 4.2108e+06
-11.13756 6.266167 -24 4.2108e+06
-11.15756 6.666053 -24 4.2108e+06
-10.04306 -2.953028 -24 4.2108e+06
-10.06058 -2.582835 -24 4.2108e+06
-10.07811 -2.211461 -24 4.2108e+06
-10.09574 -1.838922 -24 4.2108e+06
-10.11338 -1.465194 -24 4.2108e+06
-10.13112 -1.090288 -24 4.2108e+06
-10.14887 -0.7141817 -24 4.2108e+06
-10.16673 -0.3368831 -24 4.2108e+06
-10.18459 0.04162204 -24 4.2108e+06
-10.20256 0.4213347 -24 4.2108e+06
-10.22054 0.8022622 -24 4.2108e+06
-10.23862 1.184412 -24 4.2108e+06
-10.25672 1.567786 -24 4.2108e+06
-10.27492 1.952397 -24 4.2108e+06
-10.29313 2.33824 -24 4.2108e+06
-10.31145 2.725335 -24 4.2108e+06
-10.32978 3.113673 -24 4.2108e+06
-10.34822 3.503276 -24 4.2108e+06
-10.36667 3.894132 -24 4.2108e+06
-10.38522 4.286269 -24 4.2108e+06
-10.40379 4.679669 -24 4.2108e+06
-10.42247 5.074364 -24 4.2108e+06
-10.44116 5.47033 -24 4.2108e+06
-10.45996 5.867608 -24 4.2108e+06
-10.47877 6.266166 -24 4.2108e+06
-10.49769 6.666053 -24 4.2108e+06
-9.409175 -2.953028 -24 4.2108e+06
-9.425691 -2.582835 -24 4.2108e+06
-9.442219 -2.211461 -24 4.2108e+06
-9.458839 -1.838922 -24 4.2108e+06
-9.475472 -1.465194 -24 4.2108e+06
-9.492198 -1.090288 -24 4.2108e+06
-9.508938 -0.7141817 -24 4.2108e+06
-9.525771 -0.3368831 -24 4.2108e+06
-9.542617 0.04162204 -24 4.2108e+06
-9.559556 0.4213347 -24 4.2108e+06
-9.57651 0.8022622 -24 4.2108e+06
-9.59356 1.184412 -24 4.2108e+06
-9.610622 1.567786 -24 4.2108e+06
-9.627781 1.952397 -24 4.2108e+06
-9.644954 2.33824 -24 4.2108e+06
-9.662224 2.725335 -24 4.2108e+06
-9.679507 3.113673 -24 4.2108e+06
-9.69689 3.503276 -24 4.2108e+06
-9.714285 3.894132 -24 4.2108e+06
-9.731779 4.286269 -24 4.2108e+06
-9.749288 4.679669 -24 4.2108e+06
-9.766897 5.074364 -24 4.2108e+06
-9.784521 5.47033 -24 4.2108e+06
-9.802244 5.867608 -24 4.2108e+06
-9.819983 6.266166 -24 4.2108e+06
-9.837824 6.666053 -24 4.2108e+06
-8.775285 -2.953028 -24 4.2108e+06
-8.7908 -2.582835 -24 4.2108e+06
-8.806326 -2.211461 -24 4.2108e+06
-8.821939 -1.838922 -24 4.2108e+06
-8.837564 -1.465194 -24 4.2108e+06
-8.853277 -1.090288 -24 4.2108e+06
-8.869002 -0.7141817 -24 4.2108e+06
-8.884814 -0.3368828 -24 4.2108e+06
-8.900639 0.04162216 -24 4.2108e+06
-8.916553 0.4213347 -24 4.2108e+06
-8.93248 0.8022622 -24 4.2108e+06
-8.948495 1.184412 -24 4.2108e+06
-8.964524 1.567786 -24 4.2108e+06
-8.980642 1.952397 -24 4.2108e+06
-8.996776 2.33824 -24 4.2108e+06
-9.012998 2.725335 -24 4.2108e+06
-9.029234 3.113673 -24 4.2108e+06
-9.045562 3.503276 -24 4.2108e+06
-9.061904 3.894132 -24 4.2108e+06
-9.078339 4.286269 -24 4.2108e+06
-9.094786 4.67967 -24 4.2108e+06
-9.111327 5.074364 -24 4.2108e+06
-9.127882 5.470329 -24 4.2108e+06
-9.144532 5.867608 -24 4.2108e+06
-9.161197 6.266166 -24 4.2108e+06
-9.177955 6.666052 -24 4.2108e+06
-8.141396 -2.953027 -24 4.2108e+06
-8.15591 -2.582835 -24 4.2108e+06
-8.170435 -2.211461 -24 4.2108e+06
-8.18504 -1.838922 -24 4.2108e+06
-8.199657 -1.465194 -24 4.2108e+06
-8.214355 -1.090288 -24 4.2108e+06
-8.229066 -0.7141817 -24 4.2108e+06
-8.243858 -0.3368831 -24 4.2108e+06
-8.258662 0.04162216 -24 4.2108e+06
-8.273549 0.4213347 -24 4.2108e+06
-8.288449 0.8022622 -24 4.2108e+06
-8.303432 1.184412 -24 4.2108e+06
-8.318425 1.567786 -24 4.2108e+06
-8.333504 1.952397 -24 4.2108e+06
-8.348597 2.33824 -24 4.2108e+06
-8.363772 2.725335 -24 4.2108e+06
-8.378962 3.113673 -24 4.2108e+06
-8.394236 3.503276 -24 4.2108e+06
-8.409523 3.894132 -24 4.2108e+06
-8.424896 4.286269 -24 4.2108e+06
-8.440283 4.67967 -24 4.2108e+06
-8.455758 5.074364 -24 4.2108e+06
-8.471245 5.47033 -24 4.2108e+06
-8.48682 5.867608 -24 4.2108e+06
-8.502409 6.266166 -24 4.2108e+06
-8.518086 6.666053 -24 4.2108e+06
-7.507507 -2.953028 -24 4.2108e+06
-7.52102 -2.582835 -24 4.2108e+06
-7.534543 -2.211461 -24 4.2108e+06
-7.548141 -1.838922 -24 4.2108e+06
-7.56175 -1.465194 -24 4.2108e+06
-7.575437 -1.090288 -24 4.2108e+06
-7.589131 -0.7141817 -24 4.2108e+06
-7.602903 -0.3368831 -24 4.2108e+06
-7.616687 0.04162204 -24 4.2108e+06
-7.630547 0.4213347 -24 4.2108e+06
-7.644419 0.8022622 -24 4.2108e+06
-7.658368 1.184412 -24 4.2108e+06
-7.672328 1.567786 -24 4.2108e+06
-7.686367 1.952397 -24 4.2108e+06
-7.700418 2.338241 -24 4.2108e+06
-7.714547 2.725335 -24 4.2108e+06
-7.728689 3.113673 -24 4.2108e+06
-7.742909 3.503276 -24 4.2108e+06
-7.757143 3.894132 -24 4.2108e+06
-7.771457 4.286269 -24 4.2108e+06
-7.785783 4.67967 -24 4.2108e+06
-7.80019 5.074364 -24 4.2108e+06
-7.814608 5.470329 -24 4.2108e+06
-7.829109 5.867608 -24 4.2108e+06
-7.843623 6.266166 -24 4.2108e+06
-7.858219 6.666053 -24 4.2108e+06
-7.264241 -3.134104 -23.60216 4.2108e+06
-7.264241 -2.740197 -23.61551 4.2108e+06
-7.264241 -2.346292 -23.62883 4.2108e+06
-7.264241 -1.952384 -23.64218 4.2108e+06
-7.264241 -1.558479 -23.65549 4.2108e+06
-7.264241 -1.164573 -23.66885 4.2108e+06
-7.264241 -0.7706666 -23.68217 4.2108e+06
-7.264241 -0.3767598 -23.69551 4.2108e+06
-7.264241 0.01714611 -23.70883 4.2108e+06
-7.264241 0.4110529 -23.72218 4.2108e+06
-7.264241 0.8049583 -23.7355 4.2108e+06
-7.264241 1.198865 -23.74885 4.2108e+06
-7.264241 1.592771 -23.76217 4.2108e+06
-7.264241 1.986678 -23.77552 4.2108e+06
-7.264241 2.380583 -23.78884 4.2108e+06
-7.264241 2.774489 -23.80219 4.2108e+06
-7.264241 3.168396 -23.81551 4.2108e+06
-7.264241 3.562301 -23.82886 4.2108e+06
-7.264241 3.956208 -23.84218 4.2108e+06
-7.264241 4.350113 -23.85553 4.2108e+06
-7.264241 4.744022 -23.86885 4.2108e+06
-7.264241 5.137927 -23.8822 4.2108e+06
-7.264241 5.531834 -23.89552 4.2108e+06
-7.264241 5.92574 -23.90886 4.2108e+06
-7.264241 6.319646 -23.92218 4.2108e+06
-7.264241 6.713552 -23.93553 4.2108e+06
-7.264241 -3.041084 -22.88034 4.2108e+06
-7.264241 -2.612925 -22.89481 4.2108e+06
-7.264241 -2.184766 -22.90932 4.2108e+06
-7.264241 -1.756608 -22.9238 4.2108e+06
-7.264241 -1.328449 -22.93831 4.2108e+06
-7.264241 -0.9002898 -22.95279 4.2108e+06
-7.264241 -0.4721301 -22.9673 4.2108e+06
-7.264241 -0.04397154 -22.98178 4.2108e+06
-7.264241 0.3841881 -22.99629 4.2108e+06
-7.264241 0.812346 -23.01076 4.2108e+06
-7.264241 1.240506 -23.02528 4.2108e+06
-7.264241 1.668664 -23.03975 4.2108e+06
-7.264241 2.096823 -23.05426 4.2108e+06
-7.264241 2.524982 -23.06874 4.2108e+06
-7.264241 2.95314 -23.08325 4.2108e+06
-7.264241 3.3813 -23.09773 4.2108e+06
-7.264241 3.809458 -23.11224 4.2108e+06
-7.264241 4.237617 -23.12671 4.2108e+06
-7.264241 4.665776 -23.14122 4.2108e+06
-7.264241 5.093938 -23.1557 4.2108e+06
-7.264241 5.522095 -23.17021 4.2108e+06
-7.264241 5.950254 -23.18469 4.2108e+06
-7.264241 6.378413 -23.1992 4.2108e+06
-7.264241 -2.930347 -22.02098 4.2108e+06
-7.264241 -2.46141 -22.03688 4.2108e+06
-7.264241 -1.992475 -22.05273 4.2108e+06
-7.264241 -1.52354 -22.06863 4.2108e+06
-7.264241 -1.054603 -22.08448 4.2108e+06
-7.264241 -0.5856664 -22.10038 4.2108e+06
-7.264241 -0.1167309 -22.11623 4.2108e+06
-7.264241 0.3522059 -22.13212 4.2108e+06
-7.264241 0.8211409 -22.14798 4.2108e+06
-7.264241 1.290078 -22.16387 4.2108e+06
-7.264241 1.759013 -22.17973 4.2108e+06
-7.264241 2.227949 -22.19562 4.2108e+06
-7.264241 2.696885 -22.21148 4.2108e+06
-7.264241 3.165821 -22.22737 4.2108e+06
-7.264241 3.634757 -22.24323 4.2108e+06
-7.264241 4.103692 -22.25912 4.2108e+06
-7.264241 4.572628 -22.27497 4.2108e+06
-7.264241 5.041564 -22.29087 4.2108e+06
-7.264241 5.510503 -22.30672 4.2108e+06
-7.264241 5.979437 -22.32262 4.2108e+06
-7.264241 6.448375 -22.33847 4.2108e+06
-7.264241 -2.796295 -20.98076 4.2108e+06
-7.264241 -2.277998 -20.99828 4.2108e+06
-7.264241 -1.759702 -21.01585 4.2108e+06
-7.264241 -1.241404 -21.03337 4.2108e+06
-7.264241 -0.7231047 -21.05094 4.2108e+06
-7.264241 -0.2048078 -21.06846 4.2108e+06
-7.264241 0.3134907 -21.08603 4.2108e+06
-7.264241 0.8317873 -21.10356 4.2108e+06
-7.264241 1.350086 -21.12112 4.2108e+06
-7.264241 1.868382 -21.13865 4.2108e+06
-7.264241 2.386681 -21.15621 4.2108e+06
-7.264241 2.904978 -21.17374 4.2108e+06
-7.264241 3.423275 -21.1913 4.2108e+06
-7.264241 3.941574 -21.20883 4.2108e+06
-7.264241 4.459869 -21.22639 4.2108e+06
-7.264241 4.978168 -21.24392 4.2108e+06
-7.264241 5.496466 -21.26148 4.2108e+06
-7.264241 6.014767 -21.27901 4.2108e+06
-7.264241 6.533062 -21.29657 4.2108e+06
-7.264241 -2.630704 -19.69573 4.2108e+06
-7.264241 -2.051431 -19.71536 4.2108e+06
-7.264241 -1.472157 -19.73495 4.2108e+06
-7.264241 -0.8928821 -19.75458 4.2108e+06
-7.264241 -0.3136089 -19.77417 4.2108e+06
-7.264241 0.2656661 -19.7938 4.2108e+06
-7.264241 0.8449388 -19.81339 4.2108e+06
-7.264241 1.424214 -19.83302 4.2108e+06
-7.264241 2.003486 -19.8526 4.2108e+06
-7.264241 2.582761 -19.87224 4.2108e+06
-7.264241 3.162035 -19.89182 4.2108e+06
-7.264241 3.741308 -19.91146 4.2108e+06
-7.264241 4.320582 -19.93104 4.2108e+06
-7.264241 4.899855 -19.95067 4.2108e+06
-7.264241 5.47913 -19.97026 4.2108e+06
-7.264241 6.058403 -19.98989 4.2108e+06
-7.264241 6.637681 -20.00948 4.2108e+06
-7.264241 -3.077464 -18.04583 4.2108e+06
-7.264241 -2.420955 -18.06808 4.2108e+06
-7.264241 -1.764444 -18.09028 4.2108e+06
-7.264241 -1.107933 -18.11253 4.2108e+06
-7.264241 -0.4514229 -18.13472 4.2108e+06
-7.264241 0.2050884 -18.15697 4.2108e+06
-7.264241 0.8615973 -18.17917 4.2108e+06
-7.264241 1.518109 -18.20142 4.2108e+06
-7.264241 2.174618 -18.22362 4.2108e+06
-7.264241 2.831129 -18.24587 4.2108e+06
-7.264241 3.487638 -18.26807 4.2108e+06
-7.264241 4.144148 -18.29032 4.2108e+06
-7.264241 4.80066 -18.31252 4.2108e+06
-7.264241 5.457169 -18.33477 4.2108e+06
-7.264241 6.11368 -18.35696 4.2108e+06
-7.264241 6.770189 -18.37921 4.2108e+06
