VERSION 0.7
FIELDS x y z rgb
SIZE 4 4 4 4
TYPE F F F F
COUNT 1 1 1 1
WIDTH 444
HEIGHT 1
VIEWPOINT 0 0 0 1 0 0 0
POINTS 444
DATA ascii 
-15.11418 -2.953028 -24 4.2108e+06
-15.1397 -2.582835 -24 4.2108e+06
-15.16525 -2.211461 -24 4.2108e+06
-15.19093 -1.838923 -24 4.2108e+06
-15.21664 -1.465194 -24 4.2108e+06
-15.24249 -1.090288 -24 4.2108e+06
-15.26836 -0.7141817 -24 4.2108e+06
-15.29437 -0.3368831 -24 4.2108e+06
-15.32041 0.04162204 -24 4.2108e+06
-15.34659 0.4213347 -24 4.2108e+06
-15.37279 0.8022622 -24 4.2108e+06
-15.39914 1.184412 -24 4.2108e+06
-15.42551 1.567786 -24 4.2108e+06
-14.48029 -2.953028 -24 4.2108e+06
-14.50481 -2.582835 -24 4.2108e+06
-14.52936 -2.211461 -24 4.2108e+06
-14.55403 -1.838923 -24 4.2108e+06
-14.57873 -1.465194 -24 4.2108e+06
-14.60357 -1.090288 -24 4.2108e+06
-14.62842 -0.7141817 -24 4.2108e+06
-14.65342 -0.3368831 -24 4.2108e+06
-14.67843 0.04162204 -24 4.2108e+06
-14.70358 0.4213347 -24 4.2108e+06
-14.72876 0.8022622 -24 4.2108e+06
-14.75407 1.184412 -24 4.2108e+06
-14.77941 1.567786 -24 4.2108e+06
-14.80489 1.952397 -24 4.2108e+06
-14.83039 2.33824 -24 4.2108e+06
-14.85603 2.725335 -24 4.2108e+06
-14.88169 3.113673 -24 4.2108e+06
-14.9075 3.503276 -24 4.2108e+06
-14.93333 3.894132 -24 4.2108e+06
-14.95931 4.286269 -24 4.2108e+06
-14.98531 4.679669 -24 4.2108e+06
-15.01145 5.074364 -24 4.2108e+06
-15.03762 5.47033 -24 4.2108e+06
-15.06394 5.867608 -24 4.2108e+06
-15.09028 6.266167 -24 4.2108e+06
-15.11677 6.666052 -24 4.2108e+06
-13.8464 -2.953028 -24 4.2108e+06
-13.86992 -2.582835 -24 4.2108e+06
-13.89346 -2.211461 -24 4.2108e+06
-13.91713 -1.838922 -24 4.2108e+06
-13.94082 -1.465194 -24 4.2108e+06
-13.96465 -1.090288 -24 4.2108e+06
-13.98849 -0.7141817 -24 4.2108e+06
-14.01246 -0.3368828 -24 4.2108e+06
-14.03646 0.04162204 -24 4.2108e+06
-14.06058 0.4213347 -24 4.2108e+06
-14.08473 0.8022622 -24 4.2108e+06
-14.10901 1.184412 -24 4.2108e+06
-14.13331 1.567786 -24 4.2108e+06
-14.15775 1.952397 -24 4.2108e+06
-14.18221 2.33824 -24 4.2108e+06
-14.2068 2.725335 -24 4.2108e+06
-14.23142 3.113673 -24 4.2108e+06
-14.25617 3.503276 -24 4.2108e+06
-14.28095 3.894132 -24 4.2108e+06
-14.30587 4.286269 -24 4.2108e+06
-14.3308 4.67967 -24 4.2108e+06
-14.35588 5.074364 -24 4.2108e+06
-14.38098 5.47033 -24 4.2108e+06
-14.40623 5.867608 -24 4.2108e+06
-14.43149 6.266166 -24 4.2108e+06
-14.4569 6.666054 -24 4.2108e+06
-13.21251 -2.953028 -24 4.2108e+06
-13.23503 -2.582835 -24 4.2108e+06
-13.25757 -2.211461 -24 4.2108e+06
-13.28024 -1.838922 -24 4.2108e+06
-13.30292 -1.465194 -24 4.2108e+06
-13.32572 -1.090288 -24 4.2108e+06
-13.34855 -0.7141817 -24 4.2108e+06
-13.37151 -0.3368831 -24 4.2108e+06
-13.39448 0.04162204 -24 4.2108e+06
-13.41758 0.4213347 -24 4.2108e+06
-13.4407 0.8022622 -24 4.2108e+06
-13.46394 1.184412 -24 4.2108e+06
-13.48721 1.567786 -24 4.2108e+06
-13.51061 1.952397 -24 4.2108e+06
-13.53403 2.33824 -24 4.2108e+06
-13.55758 2.725335 -24 4.2108e+06
-13.58115 3.113673 -24 4.2108e+06
-13.60485 3.503276 -24 4.2108e+06
-13.62857 3.894132 -24 4.2108e+06
-13.65242 4.286269 -24 4.2108e+06
-13.6763 4.67967 -24 4.2108e+06
-13.70031 5.074364 -24 4.2108e+06
-13.72435 5.470329 -24 4.2108e+06
-13.74851 5.867608 -24 4.2108e+06
-13.7727 6.266166 -24 4.2108e+06
-13.79703 6.666053 -24 4.2108e+06
-12.57862 -2.953028 -24 4.2108e+06
-12.60014 -2.582835 -24 4.2108e+06
-12.62168 -2.211461 -24 4.2108e+06
-12.64334 -1.838922 -24 4.2108e+06
-12.66501 -1.465194 -24 4.2108e+06
-12.6868 -1.090287 -24 4.2108e+06
-12.70862 -0.7141819 -24 4.2108e+06
-12.73055 -0.3368833 -24 4.2108e+06
-12.7525 0.04162204 -24 4.2108e+06
-12.77457 0.4213347 -24 4.2108e+06
-12.79666 0.8022622 -24 4.2108e+06
-12.81888 1.184412 -24 4.2108e+06
-12.84111 1.567786 -24 4.2108e+06
-12.86347 1.952397 -24 4.2108e+06
-12.88585 2.33824 -24 4.2108e+06
-12.90835 2.725335 -24 4.2108e+06
-12.93087 3.113673 -24 4.2108e+06
-12.95352 3.503276 -24 4.2108e+06
-12.97619 3.894132 -24 4.2108e+06
-12.99898 4.286269 -24 4.2108e+06
-13.0218 4.67967 -24 4.2108e+06
-13.04474 5.074364 -24 4.2108e+06
-13.06771 5.47033 -24 4.2108e+06
-13.0908 5.867608 -24 4.2108e+06
-13.11392 6.266166 -24 4.2108e+06
-13.13716 6.666053 -24 4.2108e+06
-11.94473 -2.953028 -24 4.2108e+06
-11.96525 -2.582835 -24 4.2108e+06
-11.98579 -2.211461 -24 4.2108e+06
-12.00644 -1.838922 -24 4.2108e+06
-12.0271 -1.465194 -24 4.2108e+06
-12.04788 -1.090288 -24 4.2108e+06
-12.06868 -0.7141817 -24 4.2108e+06
-12.08959 -0.3368828 -24 4.2108e+06
-12.11052 0.04162216 -24 4.2108e+06
-12.13157 0.4213347 -24 4.2108e+06
-12.15264 0.8022622 -24 4.2108e+06
-12.17382 1.184412 -24 4.2108e+06
-12.19502 1.567786 -24 4.2108e+06
-12.21633 1.952397 -24 4.2108e+06
-12.23767 2.33824 -24 4.2108e+06
-12.25912 2.725335 -24 4.2108e+06
-12.2806 3.113673 -24 4.2108e+06
-12.3022 3.503276 -24 4.2108e+06
-12.32381 3.894132 -24 4.2108e+06
-12.34554 4.286269 -24 4.2108e+06
-12.3673 4.67967 -24 4.2108e+06
-12.38918 5.074364 -24 4.2108e+06
-12.41107 5.470329 -24 4.2108e+06
-12.43309 5.867607 -24 4.2108e+06
-12.45513 6.266167 -24 4.2108e+06
-12.47729 6.666052 -24 4.2108e+06
-11.31084 -2.953028 -24 4.2108e+06
-11.33036 -2.582835 -24 4.2108e+06
-11.34989 -2.211461 -24 4.2108e+06
-11.36954 -1.838922 -24 4.2108e+06
-11.3892 -1.465194 -24 4.2108e+06
-11.40896 -1.090288 -24 4.2108e+06
-11.42875 -0.7141817 -24 4.2108e+06
-11.44864 -0.3368828 -24 4.2108e+06
-11.46855 0.04162216 -24 4.2108e+06
-11.48857 0.4213347 -24 4.2108e+06
-11.5086 0.8022622 -24 4.2108e+06
-11.52875 1.184412 -24 4.2108e+06
-11.54892 1.567786 -24 4.2108e+06
-11.5692 1.952397 -24 4.2108e+06
-11.58949 2.33824 -24 4.2108e+06
-11.6099 2.725335 -24 4.2108e+06
-11.63033 3.113673 -24 4.2108e+06
-11.65087 3.503276 -24 4.2108e+06
-11.67143 3.894132 -24 4.2108e+06
-11.6921 4.286269 -24 4.2108e+06
-11.7128 4.67967 -24 4.2108e+06
-11.73361 5.074364 -24 4.2108e+06
-11.75443 5.47033 -24 4.2108e+06
-11.77538 5.867608 -24 4.2108e+06
-11.79634 6.266166 -24 4.2108e+06
-11.81743 6.666053 -24 4.2108e+06
-10.67695 -2.953028 -24 4.2108e+06
-10.69547 -2.582835 -24 4.2108e+06
-10.714 -2.211461 -24 4.2108e+06
-10.73264 -1.838922 -24 4.2108e+06
-10.75129 -1.465194 -24 4.2108e+06
-10.77004 -1.090288 -24 4.2108e+06
-10.78881 -0.7141817 -24 4.2108e+06
-10.80768 -0.3368828 -24 4.2108e+06
-10.82657 0.04162216 -24 4.2108e+06
-10.84556 0.4213347 -24 4.2108e+06
-10.86457 0.8022622 -24 4.2108e+06
-10.88369 1.184412 -24 4.2108e+06
-10.90282 1.567786 -24 4.2108e+06
-10.92206 1.952397 -24 4.2108e+06
-10.94131 2.33824 -24 4.2108e+06
-10.96067 2.725335 -24 4.2108e+06
-10.98005 3.113673 -24 4.2108e+06
-10.99954 3.503276 -24 4.2108e+06
-11.01905 3.894132 -24 4.2108e+06
-11.03866 4.286269 -24 4.2108e+06
-11.05829 4.67967 -24 4.2108e+06
-11.07804 5.074364 -24 4.2108e+06
-11.09779 5.470329 -24 4.2108e+06
-11.11767 5.867608 -24 4.2108e+06
-11.13756 6.266167 -24 4.2108e+06
-11.15756 6.666053 -24 4.2108e+06
-10.04306 -2.953028 -24 4.2108e+06
-10.06058 -2.582835 -24 4.2108e+06
-10.07811 -2.211461 -24 4.2108e+06
-10.09574 -1.838922 -24 4.2108e+06
-10.11338 -1.465194 -24 4.2108e+06
-10.13112 -1.090288 -24 4.2108e+06
-10.14887 -0.7141817 -24 4.2108e+06
-10.16673 -0.3368831 -24 4.2108e+06
-10.18459 0.04162204 -24 4.2108e+06
-10.20256 0.4213347 -24 4.2108e+06
-10.22054 0.8022622 -24 4.2108e+06
-10.23862 1.184412 -24 4.2108e+06
-10.25672 1.567786 -24 4.2108e+06
-10.27492 1.952397 -24 4.2108e+06
-10.29313 2.33824 -24 4.2108e+06
-10.31145 2.725335 -24 4.2108e+06
-10.32978 3.113673 -24 4.2108e+06
-10.34822 3.503276 -24 4.2108e+06
-10.36667 3.894132 -24 4.2108e+06
-10.38522 4.286269 -24 4.2108e+06
-10.40379 4.679669 -24 4.2108e+06
-10.42247 5.074364 -24 4.2108e+06
-10.44116 5.47033 -24 4.2108e+06
-10.45996 5.867608 -24 4.2108e+06
-10.47877 6.266166 -24 4.2108e+06
-10.49769 6.666053 -24 4.2108e+06
-9.409175 -2.953028 -24 4.2108e+06
-9.425691 -2.582835 -24 4.2108e+06
-9.442219 -2.211461 -24 4.2108e+06
-9.458839 -1.838922 -24 4.2108e+06
-9.475472 -1.465194 -24 4.2108e+06
-9.492198 -1.090288 -24 4.2108e+06
-9.508938 -0.7141817 -24 4.2108e+06
-9.525771 -0.3368831 -24 4.2108e+06
-9.542617 0.04162204 -24 4.2108e+06
-9.559556 0.4213347 -24 4.2108e+06
-9.57651 0.8022622 -24 4.2108e+06
-9.59356 1.184412 -24 4.2108e+06
-9.610622 1.567786 -24 4.2108e+06
-9.627781 1.952397 -24 4.2108e+06
-9.644954 2.33824 -24 4.2108e+06
-9.662224 2.725335 -24 4.2108e+06
-9.679507 3.113673 -24 4.2108e+06
-9.69689 3.503276 -24 4.2108e+06
-9.714285 3.894132 -24 4.2108e+06
-9.731779 4.286269 -24 4.2108e+06
-9.749288 4.679669 -24 4.2108e+06
-9.766897 5.074364 -24 4.2108e+06
-9.784521 5.47033 -24 4.2108e+06
-9.802244 5.867608 -24 4.2108e+06
-9.819983 6.266166 -24 4.2108e+06
-9.837824 6.666053 -24 4.2108e+06
-8.775285 -2.953028 -24 4.2108e+06
-8.7908 -2.582835 -24 4.2108e+06
-8.806326 -2.211461 -24 4.2108e+06
-8.821939 -1.838922 -24 4.2108e+06
-8.837564 -1.465194 -24 4.2108e+06
-8.853277 -1.090288 -24 4.2108e+06
-8.869002 -0.7141817 -24 4.2108e+06
-8.884814 -0.3368828 -24 4.2108e+06
-8.900639 0.04162216 -24 4.2108e+06
-8.916553 0.4213347 -24 4.2108e+06
-8.93248 0.8022622 -24 4.2108e+06
-8.948495 1.184412 -24 4.2108e+06
-8.964524 1.567786 -24 4.2108e+06
-8.980642 1.952397 -24 4.2108e+06
-8.996776 2.33824 -24 4.2108e+06
-9.012998 2.725335 -24 4.2108e+06
-9.029234 3.113673 -24 4.2108e+06
-9.045562 3.503276 -24 4.2108e+06
-9.061904 3.894132 -24 4.2108e+06
-9.078339 4.286269 -24 4.2108e+06
-9.094786 4.67967 -24 4.2108e+06
-9.111327 5.074364 -24 4.2108e+06
-9.127882 5.470329 -24 4.2108e+06
-9.144532 5.867608 -24 4.2108e+06
-9.161197 6.266166 -24 4.2108e+06
-9.177955 6.666052 -24 4.2108e+06
-8.141396 -2.953027 -24 4.2108e+06
-8.15591 -2.582835 -24 4.2108e+06
-8.170435 -2.211461 -24 4.2108e+06
-8.18504 -1.838922 -24 4.2108e+06
-8.199657 -1.465194 -24 4.2108e+06
-8.214355 -1.090288 -24 4.2108e+06
-8.229066 -0.7141817 -24 4.2108e+06
-8.243858 -0.3368831 -24 4.2108e+06
-8.258662 0.04162216 -24 4.2108e+06
-8.273549 0.4213347 -24 4.2108e+06
-8.288449 0.8022622 -24 4.2108e+06
-8.303432 1.184412 -24 4.2108e+06
-8.318425 1.567786 -24 4.2108e+06
-8.333504 1.952397 -24 4.2108e+06
-8.348597 2.33824 -24 4.2108e+06
-8.363772 2.725335 -24 4.2108e+06
-8.378962 3.113673 -24 4.2108e+06
-8.394236 3.503276 -24 4.2108e+06
-8.409523 3.894132 -24 4.2108e+06
-8.424896 4.286269 -24 4.2108e+06
-8.440283 4.67967 -24 4.2108e+06
-8.455758 5.074364 -24 4.2108e+06
-8.471245 5.47033 -24 4.2108e+06
-8.48682 5.867608 -24 4.2108e+06
-8.502409 6.266166 -24 4.2108e+06
-8.518086 6.666053 -24 4.2108e+06
-7.507507 -2.953028 -24 4.2108e+06
-7.52102 -2.582835 -24 4.2108e+06
-7.534543 -2.211461 -24 4.2108e+06
-7.548141 -1.838922 -24 4.2108e+06
-7.56175 -1.465194 -24 4.2108e+06
-7.575437 -1.090288 -24 4.2108e+06
-7.589131 -0.7141817 -24 4.2108e+06
-7.602903 -0.3368831 -24 4.2108e+06
-7.616687 0.04162204 -24 4.2108e+06
-7.630547 0.4213347 -24 4.2108e+06
-7.644419 0.8022622 -24 4.2108e+06
-7.658368 1.184412 -24 4.2108e+06
-7.672328 1.567786 -24 4.2108e+06
-7.686367 1.952397 -24 4.2108e+06
-7.700418 2.338241 -24 4.2108e+06
-7.714547 2.725335 -24 4.2108e+06
-7.728689 3.113673 -24 4.2108e+06
-7.742909 3.503276 -24 4.2108e+06
-7.757143 3.894132 -24 4.2108e+06
-7.771457 4.286269 -24 4.2108e+06
-7.785783 4.67967 -24 4.2108e+06
-7.80019 5.074364 -24 4.2108e+06
-7.814608 5.470329 -24 4.2108e+06
-7.829109 5.867608 -24 4.2108e+06
-7.843623 6.266166 -24 4.2108e+06
-7.858219 6.666053 -24 4.2108e+06
-7.426104 -2.80756 -23.45092 4.2108e+06
-7.426104 -2.405986 -23.46449 4.2108e+06
-7.426104 -2.004411 -23.4781 4.2108e+06
-7.426104 -1.602836 -23.49168 4.2108e+06
-7.426104 -1.201262 -23.50529 4.2108e+06
-7.426104 -0.7996871 -23.51887 4.2108e+06
-7.426104 -0.3981116 -23.53248 4.2108e+06
-7.426104 0.003462911 -23.54606 4.2108e+06
-7.426104 0.4050384 -23.55967 4.2108e+06
-7.426104 0.8066124 -23.57325 4.2108e+06
-7.426104 1.208188 -23.58686 4.2108e+06
-7.426104 1.609762 -23.60043 4.2108e+06
-7.426104 2.011337 -23.61404 4.2108e+06
-7.426104 2.412912 -23.62762 4.2108e+06
-7.426104 2.814486 -23.64123 4.2108e+06
-7.426104 3.216062 -23.65481 4.2108e+06
-7.426104 3.617635 -23.66842 4.2108e+06
-7.426104 4.019211 -23.682 4.2108e+06
-7.426104 4.420785 -23.69561 4.2108e+06
-7.426104 4.822363 -23.70919 4.2108e+06
-7.426104 5.223936 -23.7228 4.2108e+06
-7.426104 5.625511 -23.73637 4.2108e+06
-7.426104 6.027086 -23.74998 4.2108e+06
-7.426104 6.42866 -23.76356 4.2108e+06
-7.426104 -3.114305 -22.70143 4.2108e+06
-7.426104 -2.677811 -22.71619 4.2108e+06
-7.426104 -2.241316 -22.73098 4.2108e+06
-7.426104 -1.804822 -22.74574 4.2108e+06
-7.426104 -1.368329 -22.76053 4.2108e+06
-7.426104 -0.9318335 -22.77529 4.2108e+06
-7.426104 -0.4953387 -22.79009 4.2108e+06
-7.426104 -0.05884457 -22.80485 4.2108e+06
-7.426104 0.3776504 -22.81964 4.2108e+06
-7.426104 0.8141438 -22.8344 4.2108e+06
-7.426104 1.250639 -22.84919 4.2108e+06
-7.426104 1.687132 -22.86395 4.2108e+06
-7.426104 2.123627 -22.87874 4.2108e+06
-7.426104 2.560122 -22.8935 4.2108e+06
-7.426104 2.996615 -22.90829 4.2108e+06
-7.426104 3.433111 -22.92305 4.2108e+06
-7.426104 3.869603 -22.93785 4.2108e+06
-7.426104 4.306099 -22.95261 4.2108e+06
-7.426104 4.742593 -22.9674 4.2108e+06
-7.426104 5.17909 -22.98216 4.2108e+06
-7.426104 5.615582 -22.99695 4.2108e+06
-7.426104 6.052077 -23.01171 4.2108e+06
-7.426104 6.488571 -23.0265 4.2108e+06
-7.426104 -3.001413 -21.82535 4.2108e+06
-7.426104 -2.523346 -21.84155 4.2108e+06
-7.426104 -2.045282 -21.85772 4.2108e+06
-7.426104 -1.567217 -21.87392 4.2108e+06
-7.426104 -1.089151 -21.89008 4.2108e+06
-7.426104 -0.6110852 -21.90628 4.2108e+06
-7.426104 -0.1330204 -21.92245 4.2108e+06
-7.426104 0.3450457 -21.93865 4.2108e+06
-7.426104 0.8231099 -21.95481 4.2108e+06
-7.426104 1.301176 -21.97102 4.2108e+06
-7.426104 1.77924 -21.98718 4.2108e+06
-7.426104 2.257306 -22.00339 4.2108e+06
-7.426104 2.735371 -22.01955 4.2108e+06
-7.426104 3.213436 -22.03575 4.2108e+06
-7.426104 3.691502 -22.05191 4.2108e+06
-7.426104 4.169566 -22.06812 4.2108e+06
-7.426104 4.647632 -22.08428 4.2108e+06
-7.426104 5.125697 -22.10048 4.2108e+06
-7.426104 5.603765 -22.11665 4.2108e+06
-7.426104 6.081828 -22.13285 4.2108e+06
-7.426104 6.559895 -22.14901 4.2108e+06
-7.426104 -2.864751 -20.76487 4.2108e+06
-7.426104 -2.336364 -20.78274 4.2108e+06
-7.426104 -1.807977 -20.80065 4.2108e+06
-7.426104 -1.279588 -20.81851 4.2108e+06
-7.426104 -0.7511995 -20.83642 4.2108e+06
-7.426104 -0.2228122 -20.85429 4.2108e+06
-7.426104 0.3055768 -20.87219 4.2108e+06
-7.426104 0.8339636 -20.89006 4.2108e+06
-7.426104 1.362352 -20.90797 4.2108e+06
-7.426104 1.890739 -20.92583 4.2108e+06
-7.426104 2.419128 -20.94374 4.2108e+06
-7.426104 2.947516 -20.96161 4.2108e+06
-7.426104 3.475903 -20.97952 4.2108e+06
-7.426104 4.004292 -20.99738 4.2108e+06
-7.426104 4.532678 -21.01529 4.2108e+06
-7.426104 5.061067 -21.03315 4.2108e+06
-7.426104 5.589454 -21.05106 4.2108e+06
-7.426104 6.117846 -21.06893 4.2108e+06
-7.426104 6.646232 -21.08684 4.2108e+06
-7.426104 -2.695936 -19.45483 4.2108e+06
-7.426104 -2.105386 -19.47484 4.2108e+06
-7.426104 -1.514834 -19.49481 4.2108e+06
-7.426104 -0.9242818 -19.51482 4.2108e+06
-7.426104 -0.3337309 -19.53479 4.2108e+06
-7.426104 0.2568212 -19.55481 4.2108e+06
-7.426104 0.8473711 -19.57477 4.2108e+06
-7.426104 1.437923 -19.59479 4.2108e+06
-7.426104 2.028473 -19.61475 4.2108e+06
-7.426104 2.619026 -19.63477 4.2108e+06
-7.426104 3.209576 -19.65474 4.2108e+06
-7.426104 3.800127 -19.67475 4.2108e+06
-7.426104 4.390679 -19.69472 4.2108e+06
-7.426104 4.981229 -19.71473 4.2108e+06
-7.426104 5.57178 -19.7347 4.2108e+06
-7.426104 6.162332 -19.75471 4.2108e+06
-7.426104 6.752887 -19.77468 4.2108e+06
-7.426104 -3.151394 -17.7728 4.2108e+06
-7.426104 -2.482104 -17.79549 4.2108e+06
-7.426104 -1.812812 -17.81812 4.2108e+06
-7.426104 -1.143519 -17.8408 4.2108e+06
-7.426104 -0.4742284 -17.86343 4.2108e+06
-7.426104 0.1950641 -17.88611 4.2108e+06
-7.426104 0.8643539 -17.90874 4.2108e+06
-7.426104 1.533646 -17.93143 4.2108e+06
-7.426104 2.202936 -17.95406 4.2108e+06
-7.426104 2.872229 -17.97674 4.2108e+06
-7.426104 3.541519 -17.99937 4.2108e+06
-7.426104 4.21081 -18.02205 4.2108e+06
-7.426104 4.880102 -18.04468 4.2108e+06
-7.426104 5.549392 -18.06737 4.2108e+06
-7.426104 6.218684 -18.09 4.2108e+06
