VERSION 0.7
FIELDS x y z rgb
SIZE 4 4 4 4
TYPE F F F F
COUNT 1 1 1 1
WIDTH 524
HEIGHT 1
VIEWPOINT 0 0 0 1 0 0 0
POINTS 524
DATA ascii 
-20.18529 -2.953028 -24 4.2108e+06
-20.21883 -2.582835 -24 4.2108e+06
-20.25239 -2.211461 -24 4.2108e+06
-20.28613 -1.838922 -24 4.2108e+06
-20.3199 -1.465194 -24 4.2108e+06
-20.35386 -1.090288 -24 4.2108e+06
-20.38784 -0.7141817 -24 4.2108e+06
-20.42202 -0.3368833 -24 4.2108e+06
-20.45622 0.04162204 -24 4.2108e+06
-20.49062 0.4213347 -24 4.2108e+06
-20.52504 0.8022622 -24 4.2108e+06
-20.55965 1.184412 -24 4.2108e+06
-20.5943 1.567786 -24 4.2108e+06
-20.62913 1.952397 -24 4.2108e+06
-20.664 2.33824 -24 4.2108e+06
-20.69906 2.725335 -24 4.2108e+06
-19.5514 -2.953027 -24 4.2108e+06
-19.58394 -2.582835 -24 4.2108e+06
-19.61649 -2.211461 -24 4.2108e+06
-19.64923 -1.838923 -24 4.2108e+06
-19.68199 -1.465194 -24 4.2108e+06
-19.71494 -1.090288 -24 4.2108e+06
-19.74791 -0.7141817 -24 4.2108e+06
-19.78106 -0.3368831 -24 4.2108e+06
-19.81425 0.04162204 -24 4.2108e+06
-19.84761 0.4213347 -24 4.2108e+06
-19.88101 0.8022622 -24 4.2108e+06
-19.91459 1.184412 -24 4.2108e+06
-19.9482 1.567786 -24 4.2108e+06
-19.98199 1.952397 -24 4.2108e+06
-20.01582 2.338241 -24 4.2108e+06
-20.04984 2.725335 -24 4.2108e+06
-20.08388 3.113673 -24 4.2108e+06
-20.11812 3.503276 -24 4.2108e+06
-20.15238 3.894132 -24 4.2108e+06
-20.18684 4.286269 -24 4.2108e+06
-20.22133 4.679669 -24 4.2108e+06
-20.25601 5.074364 -24 4.2108e+06
-20.29072 5.47033 -24 4.2108e+06
-20.32563 5.867608 -24 4.2108e+06
-20.36057 6.266166 -24 4.2108e+06
-20.39571 6.666053 -24 4.2108e+06
-18.91752 -2.953028 -24 4.2108e+06
-18.94905 -2.582835 -24 4.2108e+06
-18.9806 -2.211461 -24 4.2108e+06
-19.01233 -1.838922 -24 4.2108e+06
-19.04408 -1.465194 -24 4.2108e+06
-19.07602 -1.090288 -24 4.2108e+06
-19.10798 -0.7141819 -24 4.2108e+06
-19.14011 -0.3368831 -24 4.2108e+06
-19.17227 0.04162204 -24 4.2108e+06
-19.20461 0.4213347 -24 4.2108e+06
-19.23697 0.8022622 -24 4.2108e+06
-19.26953 1.184412 -24 4.2108e+06
-19.3021 1.567786 -24 4.2108e+06
-19.33486 1.952397 -24 4.2108e+06
-19.36764 2.33824 -24 4.2108e+06
-19.40061 2.725335 -24 4.2108e+06
-19.43361 3.113673 -24 4.2108e+06
-19.46679 3.503276 -24 4.2108e+06
-19.5 3.894132 -24 4.2108e+06
-19.5334 4.286269 -24 4.2108e+06
-19.56682 4.679669 -24 4.2108e+06
-19.60044 5.074364 -24 4.2108e+06
-19.63409 5.47033 -24 4.2108e+06
-19.66792 5.867608 -24 4.2108e+06
-19.70179 6.266166 -24 4.2108e+06
-19.73585 6.666053 -24 4.2108e+06
-18.28363 -2.953028 -24 4.2108e+06
-18.31415 -2.582835 -24 4.2108e+06
-18.34471 -2.211461 -24 4.2108e+06
-18.37543 -1.838923 -24 4.2108e+06
-18.40618 -1.465194 -24 4.2108e+06
-18.43709 -1.090288 -24 4.2108e+06
-18.46804 -0.7141817 -24 4.2108e+06
-18.49915 -0.3368831 -24 4.2108e+06
-18.53029 0.04162204 -24 4.2108e+06
-18.56161 0.4213347 -24 4.2108e+06
-18.59295 0.8022622 -24 4.2108e+06
-18.62446 1.184412 -24 4.2108e+06
-18.656 1.567786 -24 4.2108e+06
-18.68772 1.952397 -24 4.2108e+06
-18.71946 2.33824 -24 4.2108e+06
-18.75138 2.725335 -24 4.2108e+06
-18.78333 3.113673 -24 4.2108e+06
-18.81546 3.503276 -24 4.2108e+06
-18.84762 3.894132 -24 4.2108e+06
-18.87996 4.286269 -24 4.2108e+06
-18.91232 4.67967 -24 4.2108e+06
-18.94487 5.074364 -24 4.2108e+06
-18.97745 5.47033 -24 4.2108e+06
-19.01021 5.867608 -24 4.2108e+06
-19.043 6.266166 -24 4.2108e+06
-19.07598 6.666053 -24 4.2108e+06
-17.64974 -2.953027 -24 4.2108e+06
-17.67927 -2.582835 -24 4.2108e+06
-17.70882 -2.211461 -24 4.2108e+06
-17.73853 -1.838922 -24 4.2108e+06
-17.76827 -1.465194 -24 4.2108e+06
-17.79818 -1.090288 -24 4.2108e+06
-17.8281 -0.7141817 -24 4.2108e+06
-17.8582 -0.3368831 -24 4.2108e+06
-17.88832 0.04162204 -24 4.2108e+06
-17.9186 0.4213347 -24 4.2108e+06
-17.94891 0.8022622 -24 4.2108e+06
-17.97939 1.184412 -24 4.2108e+06
-18.0099 1.567786 -24 4.2108e+06
-18.04058 1.952397 -24 4.2108e+06
-18.07128 2.33824 -24 4.2108e+06
-18.10216 2.725335 -24 4.2108e+06
-18.13306 3.113673 -24 4.2108e+06
-18.16413 3.503276 -24 4.2108e+06
-18.19524 3.894132 -24 4.2108e+06
-18.22651 4.286269 -24 4.2108e+06
-18.25782 4.679669 -24 4.2108e+06
-18.2893 5.074364 -24 4.2108e+06
-18.32081 5.47033 -24 4.2108e+06
-18.3525 5.867607 -24 4.2108e+06
-18.38421 6.266166 -24 4.2108e+06
-18.41611 6.666053 -24 4.2108e+06
-17.01585 -2.953028 -24 4.2108e+06
-17.04437 -2.582835 -24 4.2108e+06
-17.07292 -2.211461 -24 4.2108e+06
-17.10163 -1.838923 -24 4.2108e+06
-17.13036 -1.465194 -24 4.2108e+06
-17.15925 -1.090288 -24 4.2108e+06
-17.18817 -0.7141817 -24 4.2108e+06
-17.21724 -0.3368831 -24 4.2108e+06
-17.24634 0.04162204 -24 4.2108e+06
-17.2756 0.4213347 -24 4.2108e+06
-17.30488 0.8022622 -24 4.2108e+06
-17.33433 1.184412 -24 4.2108e+06
-17.3638 1.567786 -24 4.2108e+06
-17.39344 1.952397 -24 4.2108e+06
-17.4231 2.33824 -24 4.2108e+06
-17.45293 2.725335 -24 4.2108e+06
-17.48279 3.113673 -24 4.2108e+06
-17.51281 3.503276 -24 4.2108e+06
-17.54286 3.894132 -24 4.2108e+06
-17.57307 4.286269 -24 4.2108e+06
-17.60332 4.67967 -24 4.2108e+06
-17.63373 5.074364 -24 4.2108e+06
-17.66417 5.470329 -24 4.2108e+06
-17.69478 5.867607 -24 4.2108e+06
-17.72543 6.266166 -24 4.2108e+06
-17.75624 6.666053 -24 4.2108e+06
-16.38196 -2.953028 -24 4.2108e+06
-16.40948 -2.582835 -24 4.2108e+06
-16.43703 -2.211461 -24 4.2108e+06
-16.46473 -1.838922 -24 4.2108e+06
-16.49245 -1.465194 -24 4.2108e+06
-16.52033 -1.090288 -24 4.2108e+06
-16.54823 -0.7141817 -24 4.2108e+06
-16.57628 -0.3368828 -24 4.2108e+06
-16.60436 0.04162216 -24 4.2108e+06
-16.6326 0.4213347 -24 4.2108e+06
-16.66085 0.8022622 -24 4.2108e+06
-16.68927 1.184412 -24 4.2108e+06
-16.7177 1.567786 -24 4.2108e+06
-16.7463 1.952397 -24 4.2108e+06
-16.77493 2.33824 -24 4.2108e+06
-16.80371 2.725335 -24 4.2108e+06
-16.83251 3.113673 -24 4.2108e+06
-16.86148 3.503276 -24 4.2108e+06
-16.89048 3.894132 -24 4.2108e+06
-16.91963 4.286269 -24 4.2108e+06
-16.94881 4.67967 -24 4.2108e+06
-16.97816 5.074364 -24 4.2108e+06
-17.00753 5.47033 -24 4.2108e+06
-17.03707 5.867608 -24 4.2108e+06
-17.06664 6.266166 -24 4.2108e+06
-17.09637 6.666053 -24 4.2108e+06
-15.74807 -2.953028 -24 4.2108e+06
-15.77459 -2.582835 -24 4.2108e+06
-15.80114 -2.211462 -24 4.2108e+06
-15.82783 -1.838922 -24 4.2108e+06
-15.85455 -1.465194 -24 4.2108e+06
-15.88141 -1.090288 -24 4.2108e+06
-15.90829 -0.7141817 -24 4.2108e+06
-15.93533 -0.3368831 -24 4.2108e+06
-15.96238 0.04162216 -24 4.2108e+06
-15.98959 0.4213347 -24 4.2108e+06
-16.01682 0.8022622 -24 4.2108e+06
-16.0442 1.184412 -24 4.2108e+06
-16.07161 1.567786 -24 4.2108e+06
-16.09916 1.952397 -24 4.2108e+06
-16.12675 2.338241 -24 4.2108e+06
-16.15448 2.725335 -24 4.2108e+06
-16.18224 3.113673 -24 4.2108e+06
-16.21015 3.503276 -24 4.2108e+06
-16.23809 3.894132 -24 4.2108e+06
-16.26619 4.286269 -24 4.2108e+06
-16.29431 4.67967 -24 4.2108e+06
-16.32259 5.074364 -24 4.2108e+06
-16.3509 5.47033 -24 4.2108e+06
-16.37936 5.867608 -24 4.2108e+06
-16.40785 6.266166 -24 4.2108e+06
-16.4365 6.666052 -24 4.2108e+06
-15.11418 -2.953028 -24 4.2108e+06
-15.1397 -2.582835 -24 4.2108e+06
-15.16525 -2.211461 -24 4.2108e+06
-15.19094 -1.838923 -24 4.2108e+06
-15.21664 -1.465194 -24 4.2108e+06
-15.24249 -1.090288 -24 4.2108e+06
-15.26836 -0.7141817 -24 4.2108e+06
-15.29437 -0.3368831 -24 4.2108e+06
-15.32041 0.04162204 -24 4.2108e+06
-15.34659 0.4213347 -24 4.2108e+06
-15.37279 0.8022622 -24 4.2108e+06
-15.39914 1.184412 -24 4.2108e+06
-15.42551 1.567786 -24 4.2108e+06
-15.45203 1.952397 -24 4.2108e+06
-15.47857 2.33824 -24 4.2108e+06
-15.50525 2.725335 -24 4.2108e+06
-15.53197 3.113673 -24 4.2108e+06
-15.55883 3.503276 -24 4.2108e+06
-15.58571 3.894132 -24 4.2108e+06
-15.61275 4.286269 -24 4.2108e+06
-15.63981 4.67967 -24 4.2108e+06
-15.66702 5.074364 -24 4.2108e+06
-15.69426 5.470329 -24 4.2108e+06
-15.72165 5.867607 -24 4.2108e+06
-15.74907 6.266166 -24 4.2108e+06
-15.77664 6.666053 -24 4.2108e+06
-14.48029 -2.953028 -24 4.2108e+06
-14.50481 -2.582835 -24 4.2108e+06
-14.52936 -2.211461 -24 4.2108e+06
-14.55404 -1.838923 -24 4.2108e+06
-14.57873 -1.465194 -24 4.2108e+06
-14.60357 -1.090288 -24 4.2108e+06
-14.62842 -0.7141817 -24 4.2108e+06
-14.65342 -0.3368831 -24 4.2108e+06
-14.67843 0.04162204 -24 4.2108e+06
-14.70359 0.4213347 -24 4.2108e+06
-14.72876 0.8022622 -24 4.2108e+06
-14.75407 1.184412 -24 4.2108e+06
-14.77941 1.567786 -24 4.2108e+06
-14.80489 1.952397 -24 4.2108e+06
-14.83039 2.33824 -24 4.2108e+06
-14.85603 2.725335 -24 4.2108e+06
-14.88169 3.113673 -24 4.2108e+06
-14.9075 3.503276 -24 4.2108e+06
-14.93333 3.894132 -24 4.2108e+06
-14.95931 4.286269 -24 4.2108e+06
-14.98531 4.679669 -24 4.2108e+06
-15.01145 5.074364 -24 4.2108e+06
-15.03762 5.47033 -24 4.2108e+06
-15.06394 5.867608 -24 4.2108e+06
-15.09028 6.266167 -24 4.2108e+06
-15.11677 6.666052 -24 4.2108e+06
-13.8464 -2.953028 -24 4.2108e+06
-13.86992 -2.582835 -24 4.2108e+06
-13.89346 -2.211461 -24 4.2108e+06
-13.91714 -1.838922 -24 4.2108e+06
-13.94082 -1.465194 -24 4.2108e+06
-13.96465 -1.090288 -24 4.2108e+06
-13.98849 -0.7141817 -24 4.2108e+06
-14.01246 -0.3368828 -24 4.2108e+06
-14.03646 0.04162204 -24 4.2108e+06
-14.06058 0.4213347 -24 4.2108e+06
-14.08473 0.8022622 -24 4.2108e+06
-14.10901 1.184412 -24 4.2108e+06
-14.13331 1.567786 -24 4.2108e+06
-14.15775 1.952397 -24 4.2108e+06
-14.18221 2.33824 -24 4.2108e+06
-14.20681 2.725335 -24 4.2108e+06
-14.23142 3.113673 -24 4.2108e+06
-14.25618 3.503276 -24 4.2108e+06
-14.28095 3.894132 -24 4.2108e+06
-14.30587 4.286269 -24 4.2108e+06
-14.3308 4.67967 -24 4.2108e+06
-14.35588 5.074364 -24 4.2108e+06
-14.38098 5.47033 -24 4.2108e+06
-14.40623 5.867608 -24 4.2108e+06
-14.43149 6.266166 -24 4.2108e+06
-14.4569 6.666054 -24 4.2108e+06
-13.21251 -2.953028 -24 4.2108e+06
-13.23503 -2.582835 -24 4.2108e+06
-13.25757 -2.211461 -24 4.2108e+06
-13.28024 -1.838922 -24 4.2108e+06
-13.30292 -1.465194 -24 4.2108e+06
-13.32573 -1.090288 -24 4.2108e+06
-13.34855 -0.7141817 -24 4.2108e+06
-13.37151 -0.3368831 -24 4.2108e+06
-13.39448 0.04162204 -24 4.2108e+06
-13.41758 0.4213347 -24 4.2108e+06
-13.4407 0.8022622 -24 4.2108e+06
-13.46395 1.184412 -24 4.2108e+06
-13.48721 1.567786 -24 4.2108e+06
-13.51061 1.952397 -24 4.2108e+06
-13.53403 2.33824 -24 4.2108e+06
-13.55758 2.725335 -24 4.2108e+06
-13.58115 3.113673 -24 4.2108e+06
-13.60485 3.503276 -24 4.2108e+06
-13.62857 3.894132 -24 4.2108e+06
-13.65243 4.286269 -24 4.2108e+06
-13.6763 4.67967 -24 4.2108e+06
-13.70031 5.074364 -24 4.2108e+06
-13.72435 5.470329 -24 4.2108e+06
-13.74852 5.867608 -24 4.2108e+06
-13.7727 6.266166 -24 4.2108e+06
-13.79703 6.666053 -24 4.2108e+06
-12.70895 -2.988153 -23.92283 4.2108e+06
-12.70895 -2.609163 -23.93567 4.2108e+06
-12.70895 -2.230174 -23.94849 4.2108e+06
-12.70895 -1.851184 -23.96133 4.2108e+06
-12.70895 -1.472195 -23.97415 4.2108e+06
-12.70895 -1.093206 -23.98699 4.2108e+06
-12.70895 -0.7142165 -23.99981 4.2108e+06
-12.73055 -0.3368833 -24 4.2108e+06
-12.7525 0.04162204 -24 4.2108e+06
-12.77457 0.4213347 -24 4.2108e+06
-12.79667 0.8022622 -24 4.2108e+06
-12.81888 1.184412 -24 4.2108e+06
-12.84111 1.567786 -24 4.2108e+06
-12.86347 1.952397 -24 4.2108e+06
-12.88585 2.33824 -24 4.2108e+06
-12.90835 2.725335 -24 4.2108e+06
-12.93087 3.113673 -24 4.2108e+06
-12.95352 3.503276 -24 4.2108e+06
-12.97619 3.894132 -24 4.2108e+06
-12.99898 4.286269 -24 4.2108e+06
-13.0218 4.67967 -24 4.2108e+06
-13.04475 5.074364 -24 4.2108e+06
-13.06771 5.47033 -24 4.2108e+06
-13.0908 5.867608 -24 4.2108e+06
-13.11392 6.266166 -24 4.2108e+06
-13.13716 6.666053 -24 4.2108e+06
-12.70895 -3.169038 -23.52541 4.2108e+06
-12.70895 -2.77156 -23.53888 4.2108e+06
-12.70895 -2.374084 -23.55232 4.2108e+06
-12.70895 -1.976607 -23.56579 4.2108e+06
-12.70895 -1.579131 -23.57923 4.2108e+06
-12.70895 -1.181655 -23.5927 4.2108e+06
-12.70895 -0.784178 -23.60614 4.2108e+06
-12.70895 -0.3867009 -23.61961 4.2108e+06
-12.70895 0.01077533 -23.63305 4.2108e+06
-12.70895 0.4082527 -23.64652 4.2108e+06
-12.70895 0.8057284 -23.65996 4.2108e+06
-12.70895 1.203206 -23.67343 4.2108e+06
-12.70895 1.600681 -23.68687 4.2108e+06
-12.70895 1.998159 -23.70034 4.2108e+06
-12.70895 2.395635 -23.71378 4.2108e+06
-12.70895 2.793111 -23.72725 4.2108e+06
-12.70895 3.190589 -23.74069 4.2108e+06
-12.70895 3.588064 -23.75416 4.2108e+06
-12.70895 3.985541 -23.7676 4.2108e+06
-12.70895 4.383018 -23.78107 4.2108e+06
-12.70895 4.780497 -23.79451 4.2108e+06
-12.70895 5.177972 -23.80798 4.2108e+06
-12.70895 5.575449 -23.82142 4.2108e+06
-12.70895 5.972926 -23.83489 4.2108e+06
-12.70895 6.370401 -23.84833 4.2108e+06
-12.70895 6.767878 -23.8618 4.2108e+06
-12.70895 -2.950615 -23.10138 4.2108e+06
-12.70895 -2.532755 -23.11551 4.2108e+06
-12.70895 -2.114895 -23.12967 4.2108e+06
-12.70895 -1.697036 -23.1438 4.2108e+06
-12.70895 -1.279176 -23.15796 4.2108e+06
-12.70895 -0.8613155 -23.17209 4.2108e+06
-12.70895 -0.4434545 -23.18625 4.2108e+06
-12.70895 -0.02559519 -23.20038 4.2108e+06
-12.70895 0.3922656 -23.21454 4.2108e+06
-12.70895 0.8101248 -23.22867 4.2108e+06
-12.70895 1.227986 -23.24284 4.2108e+06
-12.70895 1.645845 -23.25697 4.2108e+06
-12.70895 2.063705 -23.27113 4.2108e+06
-12.70895 2.481565 -23.28526 4.2108e+06
-12.70895 2.899425 -23.29942 4.2108e+06
-12.70895 3.317286 -23.31355 4.2108e+06
-12.70895 3.735144 -23.32771 4.2108e+06
-12.70895 4.153005 -23.34184 4.2108e+06
-12.70895 4.570865 -23.356 4.2108e+06
-12.70895 4.988728 -23.37012 4.2108e+06
-12.70895 5.406586 -23.38429 4.2108e+06
-12.70895 5.824447 -23.39842 4.2108e+06
-12.70895 6.242307 -23.41258 4.2108e+06
-12.70895 6.660166 -23.42671 4.2108e+06
-12.70895 -3.149027 -22.61659 4.2108e+06
-12.70895 -2.708581 -22.63148 4.2108e+06
-12.70895 -2.268132 -22.64641 4.2108e+06
-12.70895 -1.827686 -22.6613 4.2108e+06
-12.70895 -1.38724 -22.67623 4.2108e+06
-12.70895 -0.9467921 -22.69112 4.2108e+06
-12.70895 -0.5063443 -22.70605 4.2108e+06
-12.70895 -0.06589758 -22.72094 4.2108e+06
-12.70895 0.3745502 -22.73587 4.2108e+06
-12.70895 0.8149964 -22.75076 4.2108e+06
-12.70895 1.255444 -22.76569 4.2108e+06
-12.70895 1.69589 -22.78058 4.2108e+06
-12.70895 2.136338 -22.79551 4.2108e+06
-12.70895 2.576785 -22.8104 4.2108e+06
-12.70895 3.017231 -22.82533 4.2108e+06
-12.70895 3.45768 -22.84022 4.2108e+06
-12.70895 3.898125 -22.85515 4.2108e+06
-12.70895 4.338573 -22.87004 4.2108e+06
-12.70895 4.779019 -22.88497 4.2108e+06
-12.70895 5.21947 -22.89986 4.2108e+06
-12.70895 5.659915 -22.91479 4.2108e+06
-12.70895 6.100363 -22.92968 4.2108e+06
-12.70895 6.54081 -22.94461 4.2108e+06
-12.70895 -2.904499 -22.09214 4.2108e+06
-12.70895 -2.438883 -22.10792 4.2108e+06
-12.70895 -1.973268 -22.12366 4.2108e+06
-12.70895 -1.507653 -22.13945 4.2108e+06
-12.70895 -1.042037 -22.15519 4.2108e+06
-12.70895 -0.576421 -22.17097 4.2108e+06
-12.70895 -0.110806 -22.18671 4.2108e+06
-12.70895 0.3548102 -22.20249 4.2108e+06
-12.70895 0.8204247 -22.21824 4.2108e+06
-12.70895 1.286041 -22.23402 4.2108e+06
-12.70895 1.751655 -22.24976 4.2108e+06
-12.70895 2.217272 -22.26554 4.2108e+06
-12.70895 2.682887 -22.28128 4.2108e+06
-12.70895 3.148502 -22.29706 4.2108e+06
-12.70895 3.614118 -22.31281 4.2108e+06
-12.70895 4.079732 -22.32859 4.2108e+06
-12.70895 4.545348 -22.34433 4.2108e+06
-12.70895 5.010963 -22.36011 4.2108e+06
-12.70895 5.476582 -22.37585 4.2108e+06
-12.70895 5.942196 -22.39164 4.2108e+06
-12.70895 6.407812 -22.40738 4.2108e+06
-12.70895 -3.124166 -21.48742 4.2108e+06
-12.70895 -2.63033 -21.50416 4.2108e+06
-12.70895 -2.136497 -21.52086 4.2108e+06
-12.70895 -1.642663 -21.53759 4.2108e+06
-12.70895 -1.148828 -21.55429 4.2108e+06
-12.70895 -0.6549921 -21.57103 4.2108e+06
-12.70895 -0.1611578 -21.58772 4.2108e+06
-12.70895 0.3326776 -21.60446 4.2108e+06
-12.70895 0.8265111 -21.62116 4.2108e+06
-12.70895 1.320347 -21.6379 4.2108e+06
-12.70895 1.81418 -21.65459 4.2108e+06
-12.70895 2.308015 -21.67133 4.2108e+06
-12.70895 2.80185 -21.68803 4.2108e+06
-12.70895 3.295684 -21.70477 4.2108e+06
-12.70895 3.789519 -21.72146 4.2108e+06
-12.70895 4.283352 -21.7382 4.2108e+06
-12.70895 4.777187 -21.7549 4.2108e+06
-12.70895 5.271022 -21.77163 4.2108e+06
-12.70895 5.76486 -21.78833 4.2108e+06
-12.70895 6.258693 -21.80507 4.2108e+06
-12.70895 6.752528 -21.82176 4.2108e+06
-12.70895 -2.846481 -20.82249 4.2108e+06
-12.70895 -2.320787 -20.84027 4.2108e+06
-12.70895 -1.795093 -20.85808 4.2108e+06
-12.70895 -1.269397 -20.87586 4.2108e+06
-12.70895 -0.7437012 -20.89367 4.2108e+06
-12.70895 -0.2180068 -20.91145 4.2108e+06
-12.70895 0.307689 -20.92927 4.2108e+06
-12.70895 0.8333828 -20.94704 4.2108e+06
-12.70895 1.359079 -20.96486 4.2108e+06
-12.70895 1.884772 -20.98263 4.2108e+06
-12.70895 2.410468 -21.00045 4.2108e+06
-12.70895 2.936162 -21.01822 4.2108e+06
-12.70895 3.461857 -21.03604 4.2108e+06
-12.70895 3.987553 -21.05381 4.2108e+06
-12.70895 4.513246 -21.07163 4.2108e+06
-12.70895 5.038941 -21.08941 4.2108e+06
-12.70895 5.564636 -21.10722 4.2108e+06
-12.70895 6.090335 -21.125 4.2108e+06
-12.70895 6.616028 -21.14281 4.2108e+06
-12.70895 -3.092445 -20.0468 4.2108e+06
-12.70895 -2.530496 -20.0658 4.2108e+06
-12.70895 -1.968547 -20.08485 4.2108e+06
-12.70895 -1.406597 -20.10385 4.2108e+06
-12.70895 -0.8446462 -20.12289 4.2108e+06
-12.70895 -0.282697 -20.14189 4.2108e+06
-12.70895 0.2792537 -20.16094 4.2108e+06
-12.70895 0.8412023 -20.17994 4.2108e+06
-12.70895 1.403153 -20.19899 4.2108e+06
-12.70895 1.965101 -20.21799 4.2108e+06
-12.70895 2.527052 -20.23703 4.2108e+06
-12.70895 3.089001 -20.25603 4.2108e+06
-12.70895 3.650951 -20.27508 4.2108e+06
-12.70895 4.212901 -20.29408 4.2108e+06
-12.70895 4.774849 -20.31312 4.2108e+06
-12.70895 5.3368 -20.33212 4.2108e+06
-12.70895 5.898749 -20.35117 4.2108e+06
-12.70895 6.460703 -20.37017 4.2108e+06
-12.70895 -2.771273 -19.1766 4.2108e+06
-12.70895 -2.167698 -19.19706 4.2108e+06
-12.70895 -1.564122 -19.21747 4.2108e+06
-12.70895 -0.9605458 -19.23792 4.2108e+06
-12.70895 -0.3569705 -19.25833 4.2108e+06
-12.70895 0.2466059 -19.27879 4.2108e+06
-12.70895 0.8501802 -19.29919 4.2108e+06
-12.70895 1.453757 -19.31965 4.2108e+06
-12.70895 2.057331 -19.34006 4.2108e+06
-12.70895 2.660908 -19.36052 4.2108e+06
-12.70895 3.264483 -19.38092 4.2108e+06
-12.70895 3.868058 -19.40138 4.2108e+06
-12.70895 4.471634 -19.42179 4.2108e+06
-12.70895 5.075208 -19.44225 4.2108e+06
-12.70895 5.678784 -19.46265 4.2108e+06
-12.70895 6.282359 -19.48311 4.2108e+06
-12.70895 -3.050575 -18.14513 4.2108e+06
-12.70895 -2.398715 -18.16722 4.2108e+06
-12.70895 -1.746852 -18.18926 4.2108e+06
-12.70895 -1.09499 -18.21136 4.2108e+06
-12.70895 -0.4431283 -18.2334 4.2108e+06
-12.70895 0.2087343 -18.25549 4.2108e+06
-12.70895 0.8605946 -18.27753 4.2108e+06
-12.70895 1.512457 -18.29962 4.2108e+06
-12.70895 2.164318 -18.32166 4.2108e+06
-12.70895 2.81618 -18.34376 4.2108e+06
-12.70895 3.468042 -18.3658 4.2108e+06
-12.70895 4.119903 -18.38789 4.2108e+06
-12.70895 4.771766 -18.40993 4.2108e+06
-12.70895 5.423625 -18.43202 4.2108e+06
-12.70895 6.075488 -18.45406 4.2108e+06
-12.70895 6.727348 -18.47616 4.2108e+06
-12.70895 -1.252815 -17.00626 4.2108e+06
-12.70895 -0.54427 -17.03021 4.2108e+06
-12.70895 0.1642764 -17.05423 4.2108e+06
-12.70895 0.8728203 -17.07818 4.2108e+06
-12.70895 1.581367 -17.1022 4.2108e+06
-12.70895 2.289911 -17.12616 4.2108e+06
-12.70895 2.998457 -17.15017 4.2108e+06
-12.70895 3.707002 -17.17413 4.2108e+06
-12.70895 4.415546 -17.19814 4.2108e+06
-12.70895 5.124093 -17.2221 4.2108e+06
-12.70895 5.832636 -17.24611 4.2108e+06
-12.70895 6.541183 -17.27007 4.2108e+06
