VERSION 0.7
FIELDS x y z rgb
SIZE 4 4 4 4
TYPE F F F F
COUNT 1 1 1 1
WIDTH 455
HEIGHT 1
VIEWPOINT 0 0 0 1 0 0 0
POINTS 455
DATA ascii 
-15.74807 -2.953028 -24 4.2108e+06
-15.77459 -2.582835 -24 4.2108e+06
-15.80114 -2.211462 -24 4.2108e+06
-15.11418 -2.953028 -24 4.2108e+06
-15.1397 -2.582835 -24 4.2108e+06
-15.16525 -2.211461 -24 4.2108e+06
-15.19093 -1.838923 -24 4.2108e+06
-15.21664 -1.465194 -24 4.2108e+06
-15.24249 -1.090288 -24 4.2108e+06
-15.26836 -0.7141817 -24 4.2108e+06
-15.29437 -0.3368831 -24 4.2108e+06
-15.32041 0.04162204 -24 4.2108e+06
-15.34659 0.4213347 -24 4.2108e+06
-15.37279 0.8022622 -24 4.2108e+06
-15.39914 1.184412 -24 4.2108e+06
-15.42551 1.567786 -24 4.2108e+06
-15.45203 1.952397 -24 4.2108e+06
-15.47856 2.33824 -24 4.2108e+06
-15.50525 2.725335 -24 4.2108e+06
-15.53197 3.113673 -24 4.2108e+06
-15.55883 3.503276 -24 4.2108e+06
-15.58571 3.894132 -24 4.2108e+06
-15.61275 4.286269 -24 4.2108e+06
-15.63981 4.67967 -24 4.2108e+06
-15.66702 5.074364 -24 4.2108e+06
-15.69426 5.470329 -24 4.2108e+06
-15.72165 5.867607 -24 4.2108e+06
-15.74906 6.266166 -24 4.2108e+06
-15.77664 6.666053 -24 4.2108e+06
-14.48029 -2.953028 -24 4.2108e+06
-14.50481 -2.582835 -24 4.2108e+06
-14.52936 -2.211461 -24 4.2108e+06
-14.55403 -1.838923 -24 4.2108e+06
-14.57873 -1.465194 -24 4.2108e+06
-14.60357 -1.090288 -24 4.2108e+06
-14.62842 -0.7141817 -24 4.2108e+06
-14.65342 -0.3368831 -24 4.2108e+06
-14.67843 0.04162204 -24 4.2108e+06
-14.70358 0.4213347 -24 4.2108e+06
-14.72876 0.8022622 -24 4.2108e+06
-14.75407 1.184412 -24 4.2108e+06
-14.77941 1.567786 -24 4.2108e+06
-14.80489 1.952397 -24 4.2108e+06
-14.83039 2.33824 -24 4.2108e+06
-14.85603 2.725335 -24 4.2108e+06
-14.88169 3.113673 -24 4.2108e+06
-14.9075 3.503276 -24 4.2108e+06
-14.93333 3.894132 -24 4.2108e+06
-14.95931 4.286269 -24 4.2108e+06
-14.98531 4.679669 -24 4.2108e+06
-15.01145 5.074364 -24 4.2108e+06
-15.03762 5.47033 -24 4.2108e+06
-15.06394 5.867608 -24 4.2108e+06
-15.09028 6.266167 -24 4.2108e+06
-15.11677 6.666052 -24 4.2108e+06
-13.8464 -2.953028 -24 4.2108e+06
-13.86992 -2.582835 -24 4.2108e+06
-13.89346 -2.211461 -24 4.2108e+06
-13.91713 -1.838922 -24 4.2108e+06
-13.94082 -1.465194 -24 4.2108e+06
-13.96465 -1.090288 -24 4.2108e+06
-13.98849 -0.7141817 -24 4.2108e+06
-14.01246 -0.3368828 -24 4.2108e+06
-14.03646 0.04162204 -24 4.2108e+06
-14.06058 0.4213347 -24 4.2108e+06
-14.08473 0.8022622 -24 4.2108e+06
-14.10901 1.184412 -24 4.2108e+06
-14.13331 1.567786 -24 4.2108e+06
-14.15775 1.952397 -24 4.2108e+06
-14.18221 2.33824 -24 4.2108e+06
-14.2068 2.725335 -24 4.2108e+06
-14.23142 3.113673 -24 4.2108e+06
-14.25617 3.503276 -24 4.2108e+06
-14.28095 3.894132 -24 4.2108e+06
-14.30587 4.286269 -24 4.2108e+06
-14.3308 4.67967 -24 4.2108e+06
-14.35588 5.074364 -24 4.2108e+06
-14.38098 5.47033 -24 4.2108e+06
-14.40623 5.867608 -24 4.2108e+06
-14.43149 6.266166 -24 4.2108e+06
-14.4569 6.666054 -24 4.2108e+06
-13.21251 -2.953028 -24 4.2108e+06
-13.23503 -2.582835 -24 4.2108e+06
-13.25757 -2.211461 -24 4.2108e+06
-13.28024 -1.838922 -24 4.2108e+06
-13.30292 -1.465194 -24 4.2108e+06
-13.32572 -1.090288 -24 4.2108e+06
-13.34855 -0.7141817 -24 4.2108e+06
-13.37151 -0.3368831 -24 4.2108e+06
-13.39448 0.04162204 -24 4.2108e+06
-13.41758 0.4213347 -24 4.2108e+06
-13.4407 0.8022622 -24 4.2108e+06
-13.46394 1.184412 -24 4.2108e+06
-13.48721 1.567786 -24 4.2108e+06
-13.51061 1.952397 -24 4.2108e+06
-13.53403 2.33824 -24 4.2108e+06
-13.55758 2.725335 -24 4.2108e+06
-13.58115 3.113673 -24 4.2108e+06
-13.60485 3.503276 -24 4.2108e+06
-13.62857 3.894132 -24 4.2108e+06
-13.65242 4.286269 -24 4.2108e+06
-13.6763 4.67967 -24 4.2108e+06
-13.70031 5.074364 -24 4.2108e+06
-13.72435 5.470329 -24 4.2108e+06
-13.74851 5.867608 -24 4.2108e+06
-13.7727 6.266166 -24 4.2108e+06
-13.79703 6.666053 -24 4.2108e+06
-12.57862 -2.953028 -24 4.2108e+06
-12.60014 -2.582835 -24 4.2108e+06
-12.62168 -2.211461 -24 4.2108e+06
-12.64334 -1.838922 -24 4.2108e+06
-12.66501 -1.465194 -24 4.2108e+06
-12.6868 -1.090287 -24 4.2108e+06
-12.70862 -0.7141819 -24 4.2108e+06
-12.73055 -0.3368833 -24 4.2108e+06
-12.7525 0.04162204 -24 4.2108e+06
-12.77457 0.4213347 -24 4.2108e+06
-12.79666 0.8022622 -24 4.2108e+06
-12.81888 1.184412 -24 4.2108e+06
-12.84111 1.567786 -24 4.2108e+06
-12.86347 1.952397 -24 4.2108e+06
-12.88585 2.33824 -24 4.2108e+06
-12.90835 2.725335 -24 4.2108e+06
-12.93087 3.113673 -24 4.2108e+06
-12.95352 3.503276 -24 4.2108e+06
-12.97619 3.894132 -24 4.2108e+06
-12.99898 4.286269 -24 4.2108e+06
-13.0218 4.67967 -24 4.2108e+06
-13.04474 5.074364 -24 4.2108e+06
-13.06771 5.47033 -24 4.2108e+06
-13.0908 5.867608 -24 4.2108e+06
-13.11392 6.266166 -24 4.2108e+06
-13.13716 6.666053 -24 4.2108e+06
-11.94473 -2.953028 -24 4.2108e+06
-11.96525 -2.582835 -24 4.2108e+06
-11.98579 -2.211461 -24 4.2108e+06
-12.00644 -1.838922 -24 4.2108e+06
-12.0271 -1.465194 -24 4.2108e+06
-12.04788 -1.090288 -24 4.2108e+06
-12.06868 -0.7141817 -24 4.2108e+06
-12.08959 -0.3368828 -24 4.2108e+06
-12.11052 0.04162216 -24 4.2108e+06
-12.13157 0.4213347 -24 4.2108e+06
-12.15264 0.8022622 -24 4.2108e+06
-12.17382 1.184412 -24 4.2108e+06
-12.19502 1.567786 -24 4.2108e+06
-12.21633 1.952397 -24 4.2108e+06
-12.23767 2.33824 -24 4.2108e+06
-12.25912 2.725335 -24 4.2108e+06
-12.2806 3.113673 -24 4.2108e+06
-12.3022 3.503276 -24 4.2108e+06
-12.32381 3.894132 -24 4.2108e+06
-12.34554 4.286269 -24 4.2108e+06
-12.3673 4.67967 -24 4.2108e+06
-12.38918 5.074364 -24 4.2108e+06
-12.41107 5.470329 -24 4.2108e+06
-12.43309 5.867607 -24 4.2108e+06
-12.45513 6.266167 -24 4.2108e+06
-12.47729 6.666052 -24 4.2108e+06
-11.31084 -2.953028 -24 4.2108e+06
-11.33036 -2.582835 -24 4.2108e+06
-11.34989 -2.211461 -24 4.2108e+06
-11.36954 -1.838922 -24 4.2108e+06
-11.3892 -1.465194 -24 4.2108e+06
-11.40896 -1.090288 -24 4.2108e+06
-11.42875 -0.7141817 -24 4.2108e+06
-11.44864 -0.3368828 -24 4.2108e+06
-11.46855 0.04162216 -24 4.2108e+06
-11.48857 0.4213347 -24 4.2108e+06
-11.5086 0.8022622 -24 4.2108e+06
-11.52875 1.184412 -24 4.2108e+06
-11.54892 1.567786 -24 4.2108e+06
-11.5692 1.952397 -24 4.2108e+06
-11.58949 2.33824 -24 4.2108e+06
-11.6099 2.725335 -24 4.2108e+06
-11.63033 3.113673 -24 4.2108e+06
-11.65087 3.503276 -24 4.2108e+06
-11.67143 3.894132 -24 4.2108e+06
-11.6921 4.286269 -24 4.2108e+06
-11.7128 4.67967 -24 4.2108e+06
-11.73361 5.074364 -24 4.2108e+06
-11.75443 5.47033 -24 4.2108e+06
-11.77538 5.867608 -24 4.2108e+06
-11.79634 6.266166 -24 4.2108e+06
-11.81743 6.666053 -24 4.2108e+06
-10.67695 -2.953028 -24 4.2108e+06
-10.69547 -2.582835 -24 4.2108e+06
-10.714 -2.211461 -24 4.2108e+06
-10.73264 -1.838922 -24 4.2108e+06
-10.75129 -1.465194 -24 4.2108e+06
-10.77004 -1.090288 -24 4.2108e+06
-10.78881 -0.7141817 -24 4.2108e+06
-10.80768 -0.3368828 -24 4.2108e+06
-10.82657 0.04162216 -24 4.2108e+06
-10.84556 0.4213347 -24 4.2108e+06
-10.86457 0.8022622 -24 4.2108e+06
-10.88369 1.184412 -24 4.2108e+06
-10.90282 1.567786 -24 4.2108e+06
-10.92206 1.952397 -24 4.2108e+06
-10.94131 2.33824 -24 4.2108e+06
-10.96067 2.725335 -24 4.2108e+06
-10.98005 3.113673 -24 4.2108e+06
-10.99954 3.503276 -24 4.2108e+06
-11.01905 3.894132 -24 4.2108e+06
-11.03866 4.286269 -24 4.2108e+06
-11.05829 4.67967 -24 4.2108e+06
-11.07804 5.074364 -24 4.2108e+06
-11.09779 5.470329 -24 4.2108e+06
-11.11767 5.867608 -24 4.2108e+06
-11.13756 6.266167 -24 4.2108e+06
-11.15756 6.666053 -24 4.2108e+06
-10.04306 -2.953028 -24 4.2108e+06
-10.06058 -2.582835 -24 4.2108e+06
-10.07811 -2.211461 -24 4.2108e+06
-10.09574 -1.838922 -24 4.2108e+06
-10.11338 -1.465194 -24 4.2108e+06
-10.13112 -1.090288 -24 4.2108e+06
-10.14887 -0.7141817 -24 4.2108e+06
-10.16673 -0.3368831 -24 4.2108e+06
-10.18459 0.04162204 -24 4.2108e+06
-10.20256 0.4213347 -24 4.2108e+06
-10.22054 0.8022622 -24 4.2108e+06
-10.23862 1.184412 -24 4.2108e+06
-10.25672 1.567786 -24 4.2108e+06
-10.27492 1.952397 -24 4.2108e+06
-10.29313 2.33824 -24 4.2108e+06
-10.31145 2.725335 -24 4.2108e+06
-10.32978 3.113673 -24 4.2108e+06
-10.34822 3.503276 -24 4.2108e+06
-10.36667 3.894132 -24 4.2108e+06
-10.38522 4.286269 -24 4.2108e+06
-10.40379 4.679669 -24 4.2108e+06
-10.42247 5.074364 -24 4.2108e+06
-10.44116 5.47033 -24 4.2108e+06
-10.45996 5.867608 -24 4.2108e+06
-10.47877 6.266166 -24 4.2108e+06
-10.49769 6.666053 -24 4.2108e+06
-9.409175 -2.953028 -24 4.2108e+06
-9.425691 -2.582835 -24 4.2108e+06
-9.442219 -2.211461 -24 4.2108e+06
-9.458839 -1.838922 -24 4.2108e+06
-9.475472 -1.465194 -24 4.2108e+06
-9.492198 -1.090288 -24 4.2108e+06
-9.508938 -0.7141817 -24 4.2108e+06
-9.525771 -0.3368831 -24 4.2108e+06
-9.542617 0.04162204 -24 4.2108e+06
-9.559556 0.4213347 -24 4.2108e+06
-9.57651 0.8022622 -24 4.2108e+06
-9.59356 1.184412 -24 4.2108e+06
-9.610622 1.567786 -24 4.2108e+06
-9.627781 1.952397 -24 4.2108e+06
-9.644954 2.33824 -24 4.2108e+06
-9.662224 2.725335 -24 4.2108e+06
-9.679507 3.113673 -24 4.2108e+06
-9.69689 3.503276 -24 4.2108e+06
-9.714285 3.894132 -24 4.2108e+06
-9.731779 4.286269 -24 4.2108e+06
-9.749288 4.679669 -24 4.2108e+06
-9.766897 5.074364 -24 4.2108e+06
-9.784521 5.47033 -24 4.2108e+06
-9.802244 5.867608 -24 4.2108e+06
-9.819983 6.266166 -24 4.2108e+06
-9.837824 6.666053 -24 4.2108e+06
-8.775285 -2.953028 -24 4.2108e+06
-8.7908 -2.582835 -24 4.2108e+06
-8.806326 -2.211461 -24 4.2108e+06
-8.821939 -1.838922 -24 4.2108e+06
-8.837564 -1.465194 -24 4.2108e+06
-8.853277 -1.090288 -24 4.2108e+06
-8.869002 -0.7141817 -24 4.2108e+06
-8.884814 -0.3368828 -24 4.2108e+06
-8.900639 0.04162216 -24 4.2108e+06
-8.916553 0.4213347 -24 4.2108e+06
-8.93248 0.8022622 -24 4.2108e+06
-8.948495 1.184412 -24 4.2108e+06
-8.964524 1.567786 -24 4.2108e+06
-8.980642 1.952397 -24 4.2108e+06
-8.996776 2.33824 -24 4.2108e+06
-9.012998 2.725335 -24 4.2108e+06
-9.029234 3.113673 -24 4.2108e+06
-9.045562 3.503276 -24 4.2108e+06
-9.061904 3.894132 -24 4.2108e+06
-9.078339 4.286269 -24 4.2108e+06
-9.094786 4.67967 -24 4.2108e+06
-9.111327 5.074364 -24 4.2108e+06
-9.127882 5.470329 -24 4.2108e+06
-9.144532 5.867608 -24 4.2108e+06
-9.161197 6.266166 -24 4.2108e+06
-9.177955 6.666052 -24 4.2108e+06
-8.141396 -2.953027 -24 4.2108e+06
-8.15591 -2.582835 -24 4.2108e+06
-8.170435 -2.211461 -24 4.2108e+06
-8.18504 -1.838922 -24 4.2108e+06
-8.199657 -1.465194 -24 4.2108e+06
-8.214355 -1.090288 -24 4.2108e+06
-8.229066 -0.7141817 -24 4.2108e+06
-8.243858 -0.3368831 -24 4.2108e+06
-8.258662 0.04162216 -24 4.2108e+06
-8.273549 0.4213347 -24 4.2108e+06
-8.288449 0.8022622 -24 4.2108e+06
-8.303432 1.184412 -24 4.2108e+06
-8.318425 1.567786 -24 4.2108e+06
-8.333504 1.952397 -24 4.2108e+06
-8.348597 2.33824 -24 4.2108e+06
-8.363772 2.725335 -24 4.2108e+06
-8.378962 3.113673 -24 4.2108e+06
-8.394236 3.503276 -24 4.2108e+06
-8.409523 3.894132 -24 4.2108e+06
-8.424896 4.286269 -24 4.2108e+06
-8.440283 4.67967 -24 4.2108e+06
-8.455758 5.074364 -24 4.2108e+06
-8.471245 5.47033 -24 4.2108e+06
-8.48682 5.867608 -24 4.2108e+06
-8.502409 6.266166 -24 4.2108e+06
-8.518086 6.666053 -24 4.2108e+06
-7.808566 -3.082248 -23.71609 4.2108e+06
-7.808566 -2.693641 -23.72926 4.2108e+06
-7.808566 -2.305035 -23.7424 4.2108e+06
-7.808566 -1.916428 -23.75557 4.2108e+06
-7.808566 -1.527822 -23.76871 4.2108e+06
-7.808566 -1.139217 -23.78188 4.2108e+06
-7.808566 -0.7506101 -23.79502 4.2108e+06
-7.808566 -0.3620031 -23.80819 4.2108e+06
-7.808566 0.02660286 -23.82133 4.2108e+06
-7.808566 0.4152098 -23.8345 4.2108e+06
-7.808566 0.8038153 -23.84764 4.2108e+06
-7.808566 1.192422 -23.86081 4.2108e+06
-7.808566 1.581028 -23.87395 4.2108e+06
-7.808566 1.969635 -23.88712 4.2108e+06
-7.808566 2.358241 -23.90026 4.2108e+06
-7.808566 2.746846 -23.91343 4.2108e+06
-7.808566 3.135453 -23.92657 4.2108e+06
-7.808566 3.524058 -23.93974 4.2108e+06
-7.808566 3.912665 -23.95288 4.2108e+06
-7.808566 4.301271 -23.96605 4.2108e+06
-7.808566 4.68988 -23.97919 4.2108e+06
-7.808566 5.078485 -23.99236 4.2108e+06
-7.814608 5.470329 -24 4.2108e+06
-7.829109 5.867608 -24 4.2108e+06
-7.843623 6.266166 -24 4.2108e+06
-7.858219 6.666053 -24 4.2108e+06
-7.808566 -2.966732 -23.062 4.2108e+06
-7.808566 -2.547038 -23.07619 4.2108e+06
-7.808566 -2.127342 -23.09042 4.2108e+06
-7.808566 -1.707649 -23.10461 4.2108e+06
-7.808566 -1.287954 -23.11883 4.2108e+06
-7.808566 -0.868259 -23.13302 4.2108e+06
-7.808566 -0.4485633 -23.14725 4.2108e+06
-7.808566 -0.02886891 -23.16144 4.2108e+06
-7.808566 0.3908266 -23.17566 4.2108e+06
-7.808566 0.8105205 -23.18985 4.2108e+06
-7.808566 1.230216 -23.20407 4.2108e+06
-7.808566 1.64991 -23.21827 4.2108e+06
-7.808566 2.069606 -23.23249 4.2108e+06
-7.808566 2.4893 -23.24668 4.2108e+06
-7.808566 2.908994 -23.26091 4.2108e+06
-7.808566 3.32869 -23.27509 4.2108e+06
-7.808566 3.748383 -23.28932 4.2108e+06
-7.808566 4.168079 -23.30351 4.2108e+06
-7.808566 4.587773 -23.31773 4.2108e+06
-7.808566 5.007471 -23.33192 4.2108e+06
-7.808566 5.427165 -23.34615 4.2108e+06
-7.808566 5.84686 -23.36034 4.2108e+06
-7.808566 6.266555 -23.37457 4.2108e+06
-7.808566 6.686249 -23.38876 4.2108e+06
-7.808566 -2.831128 -22.29412 4.2108e+06
-7.808566 -2.374938 -22.30958 4.2108e+06
-7.808566 -1.918748 -22.32501 4.2108e+06
-7.808566 -1.462559 -22.34047 4.2108e+06
-7.808566 -1.006368 -22.35589 4.2108e+06
-7.808566 -0.5501778 -22.37136 4.2108e+06
-7.808566 -0.09398794 -22.38678 4.2108e+06
-7.808566 0.3622028 -22.40224 4.2108e+06
-7.808566 0.8183919 -22.41766 4.2108e+06
-7.808566 1.274583 -22.43312 4.2108e+06
-7.808566 1.730772 -22.44855 4.2108e+06
-7.808566 2.186963 -22.46401 4.2108e+06
-7.808566 2.643152 -22.47943 4.2108e+06
-7.808566 3.099342 -22.4949 4.2108e+06
-7.808566 3.555533 -22.51032 4.2108e+06
-7.808566 4.011721 -22.52578 4.2108e+06
-7.808566 4.467912 -22.54121 4.2108e+06
-7.808566 4.924102 -22.55667 4.2108e+06
-7.808566 5.380295 -22.57209 4.2108e+06
-7.808566 5.836484 -22.58755 4.2108e+06
-7.808566 6.292674 -22.60298 4.2108e+06
-7.808566 6.748864 -22.61844 4.2108e+06
-7.808566 -3.169332 -21.36309 4.2108e+06
-7.808566 -2.669694 -21.38002 4.2108e+06
-7.808566 -2.170058 -21.39691 4.2108e+06
-7.808566 -1.670422 -21.41385 4.2108e+06
-7.808566 -1.170785 -21.43074 4.2108e+06
-7.808566 -0.6711471 -21.44767 4.2108e+06
-7.808566 -0.1715107 -21.46457 4.2108e+06
-7.808566 0.3281268 -21.4815 4.2108e+06
-7.808566 0.8277625 -21.49839 4.2108e+06
-7.808566 1.3274 -21.51533 4.2108e+06
-7.808566 1.827036 -21.53222 4.2108e+06
-7.808566 2.326673 -21.54916 4.2108e+06
-7.808566 2.826309 -21.56605 4.2108e+06
-7.808566 3.325946 -21.58298 4.2108e+06
-7.808566 3.825583 -21.59988 4.2108e+06
-7.808566 4.325219 -21.61681 4.2108e+06
-7.808566 4.824857 -21.6337 4.2108e+06
-7.808566 5.324492 -21.65063 4.2108e+06
-7.808566 5.824133 -21.66753 4.2108e+06
-7.808566 6.323767 -21.68446 4.2108e+06
-7.808566 -3.026504 -20.25476 4.2108e+06
-7.808566 -2.474274 -20.27343 4.2108e+06
-7.808566 -1.922045 -20.29215 4.2108e+06
-7.808566 -1.369815 -20.31082 4.2108e+06
-7.808566 -0.8175833 -20.32954 4.2108e+06
-7.808566 -0.2653539 -20.34821 4.2108e+06
-7.808566 0.286877 -20.36692 4.2108e+06
-7.808566 0.8391059 -20.38559 4.2108e+06
-7.808566 1.391337 -20.40431 4.2108e+06
-7.808566 1.943566 -20.42298 4.2108e+06
-7.808566 2.495797 -20.4417 4.2108e+06
-7.808566 3.048027 -20.46037 4.2108e+06
-7.808566 3.600256 -20.47909 4.2108e+06
-7.808566 4.152487 -20.49776 4.2108e+06
-7.808566 4.704715 -20.51647 4.2108e+06
-7.808566 5.256947 -20.53514 4.2108e+06
-7.808566 5.809175 -20.55386 4.2108e+06
-7.808566 6.361409 -20.57253 4.2108e+06
-7.808566 -2.850071 -18.8856 4.2108e+06
-7.808566 -2.232874 -18.90652 4.2108e+06
-7.808566 -1.615675 -18.92738 4.2108e+06
-7.808566 -0.9984758 -18.9483 4.2108e+06
-7.808566 -0.381278 -18.96917 4.2108e+06
-7.808566 0.2359214 -18.99009 4.2108e+06
-7.808566 0.8531184 -19.01096 4.2108e+06
-7.808566 1.470318 -19.03188 4.2108e+06
-7.808566 2.087515 -19.05274 4.2108e+06
-7.808566 2.704714 -19.07366 4.2108e+06
-7.808566 3.321912 -19.09453 4.2108e+06
-7.808566 3.93911 -19.11545 4.2108e+06
-7.808566 4.556309 -19.13631 4.2108e+06
-7.808566 5.173506 -19.15723 4.2108e+06
-7.808566 5.790705 -19.1781 4.2108e+06
-7.808566 6.407903 -19.19902 4.2108e+06
-7.808566 -2.62659 -17.15139 4.2108e+06
-7.808566 -1.927098 -17.17504 4.2108e+06
-7.808566 -1.227606 -17.19874 4.2108e+06
-7.808566 -0.528115 -17.22239 4.2108e+06
-7.808566 0.1713777 -17.2461 4.2108e+06
-7.808566 0.8708675 -17.26975 4.2108e+06
-7.808566 1.57036 -17.29346 4.2108e+06
-7.808566 2.26985 -17.31711 4.2108e+06
-7.808566 2.969342 -17.34082 4.2108e+06
-7.808566 3.668833 -17.36447 4.2108e+06
-7.808566 4.368324 -17.38818 4.2108e+06
-7.808566 5.067817 -17.41183 4.2108e+06
-7.808566 5.767305 -17.43554 4.2108e+06
-7.808566 6.466798 -17.45918 4.2108e+06
