VERSION 0.7
FIELDS x y z rgb
SIZE 4 4 4 4
TYPE F F F F
COUNT 1 1 1 1
WIDTH 454
HEIGHT 1
VIEWPOINT 0 0 0 1 0 0 0
POINTS 454
DATA ascii 
-15.74807 -2.953028 -24 4.2108e+06
-15.77459 -2.582835 -24 4.2108e+06
-15.11418 -2.953028 -24 4.2108e+06
-15.1397 -2.582835 -24 4.2108e+06
-15.16525 -2.211461 -24 4.2108e+06
-15.19093 -1.838923 -24 4.2108e+06
-15.21664 -1.465194 -24 4.2108e+06
-15.24249 -1.090288 -24 4.2108e+06
-15.26836 -0.7141817 -24 4.2108e+06
-15.29437 -0.3368831 -24 4.2108e+06
-15.32041 0.04162204 -24 4.2108e+06
-15.34659 0.4213347 -24 4.2108e+06
-15.37279 0.8022622 -24 4.2108e+06
-15.39914 1.184412 -24 4.2108e+06
-15.42551 1.567786 -24 4.2108e+06
-15.45203 1.952397 -24 4.2108e+06
-15.47856 2.33824 -24 4.2108e+06
-15.50525 2.725335 -24 4.2108e+06
-15.53197 3.113673 -24 4.2108e+06
-15.55883 3.503276 -24 4.2108e+06
-15.58571 3.894132 -24 4.2108e+06
-15.61275 4.286269 -24 4.2108e+06
-15.63981 4.67967 -24 4.2108e+06
-15.66702 5.074364 -24 4.2108e+06
-15.69426 5.470329 -24 4.2108e+06
-15.72165 5.867607 -24 4.2108e+06
-15.74906 6.266166 -24 4.2108e+06
-15.77664 6.666053 -24 4.2108e+06
-14.48029 -2.953028 -24 4.2108e+06
-14.50481 -2.582835 -24 4.2108e+06
-14.52936 -2.211461 -24 4.2108e+06
-14.55403 -1.838923 -24 4.2108e+06
-14.57873 -1.465194 -24 4.2108e+06
-14.60357 -1.090288 -24 4.2108e+06
-14.62842 -0.7141817 -24 4.2108e+06
-14.65342 -0.3368831 -24 4.2108e+06
-14.67843 0.04162204 -24 4.2108e+06
-14.70358 0.4213347 -24 4.2108e+06
-14.72876 0.8022622 -24 4.2108e+06
-14.75407 1.184412 -24 4.2108e+06
-14.77941 1.567786 -24 4.2108e+06
-14.80489 1.952397 -24 4.2108e+06
-14.83039 2.33824 -24 4.2108e+06
-14.85603 2.725335 -24 4.2108e+06
-14.88169 3.113673 -24 4.2108e+06
-14.9075 3.503276 -24 4.2108e+06
-14.93333 3.894132 -24 4.2108e+06
-14.95931 4.286269 -24 4.2108e+06
-14.98531 4.679669 -24 4.2108e+06
-15.01145 5.074364 -24 4.2108e+06
-15.03762 5.47033 -24 4.2108e+06
-15.06394 5.867608 -24 4.2108e+06
-15.09028 6.266167 -24 4.2108e+06
-15.11677 6.666052 -24 4.2108e+06
-13.8464 -2.953028 -24 4.2108e+06
-13.86992 -2.582835 -24 4.2108e+06
-13.89346 -2.211461 -24 4.2108e+06
-13.91713 -1.838922 -24 4.2108e+06
-13.94082 -1.465194 -24 4.2108e+06
-13.96465 -1.090288 -24 4.2108e+06
-13.98849 -0.7141817 -24 4.2108e+06
-14.01246 -0.3368828 -24 4.2108e+06
-14.03646 0.04162204 -24 4.2108e+06
-14.06058 0.4213347 -24 4.2108e+06
-14.08473 0.8022622 -24 4.2108e+06
-14.10901 1.184412 -24 4.2108e+06
-14.13331 1.567786 -24 4.2108e+06
-14.15775 1.952397 -24 4.2108e+06
-14.18221 2.33824 -24 4.2108e+06
-14.2068 2.725335 -24 4.2108e+06
-14.23142 3.113673 -24 4.2108e+06
-14.25617 3.503276 -24 4.2108e+06
-14.28095 3.894132 -24 4.2108e+06
-14.30587 4.286269 -24 4.2108e+06
-14.3308 4.67967 -24 4.2108e+06
-14.35588 5.074364 -24 4.2108e+06
-14.38098 5.47033 -24 4.2108e+06
-14.40623 5.867608 -24 4.2108e+06
-14.43149 6.266166 -24 4.2108e+06
-14.4569 6.666054 -24 4.2108e+06
-13.21251 -2.953028 -24 4.2108e+06
-13.23503 -2.582835 -24 4.2108e+06
-13.25757 -2.211461 -24 4.2108e+06
-13.28024 -1.838922 -24 4.2108e+06
-13.30292 -1.465194 -24 4.2108e+06
-13.32572 -1.090288 -24 4.2108e+06
-13.34855 -0.7141817 -24 4.2108e+06
-13.37151 -0.3368831 -24 4.2108e+06
-13.39448 0.04162204 -24 4.2108e+06
-13.41758 0.4213347 -24 4.2108e+06
-13.4407 0.8022622 -24 4.2108e+06
-13.46394 1.184412 -24 4.2108e+06
-13.48721 1.567786 -24 4.2108e+06
-13.51061 1.952397 -24 4.2108e+06
-13.53403 2.33824 -24 4.2108e+06
-13.55758 2.725335 -24 4.2108e+06
-13.58115 3.113673 -24 4.2108e+06
-13.60485 3.503276 -24 4.2108e+06
-13.62857 3.894132 -24 4.2108e+06
-13.65242 4.286269 -24 4.2108e+06
-13.6763 4.67967 -24 4.2108e+06
-13.70031 5.074364 -24 4.2108e+06
-13.72435 5.470329 -24 4.2108e+06
-13.74851 5.867608 -24 4.2108e+06
-13.7727 6.266166 -24 4.2108e+06
-13.79703 6.666053 -24 4.2108e+06
-12.57862 -2.953028 -24 4.2108e+06
-12.60014 -2.582835 -24 4.2108e+06
-12.62168 -2.211461 -24 4.2108e+06
-12.64334 -1.838922 -24 4.2108e+06
-12.66501 -1.465194 -24 4.2108e+06
-12.6868 -1.090287 -24 4.2108e+06
-12.70862 -0.7141819 -24 4.2108e+06
-12.73055 -0.3368833 -24 4.2108e+06
-12.7525 0.04162204 -24 4.2108e+06
-12.77457 0.4213347 -24 4.2108e+06
-12.79666 0.8022622 -24 4.2108e+06
-12.81888 1.184412 -24 4.2108e+06
-12.84111 1.567786 -24 4.2108e+06
-12.86347 1.952397 -24 4.2108e+06
-12.88585 2.33824 -24 4.2108e+06
-12.90835 2.725335 -24 4.2108e+06
-12.93087 3.113673 -24 4.2108e+06
-12.95352 3.503276 -24 4.2108e+06
-12.97619 3.894132 -24 4.2108e+06
-12.99898 4.286269 -24 4.2108e+06
-13.0218 4.67967 -24 4.2108e+06
-13.04474 5.074364 -24 4.2108e+06
-13.06771 5.47033 -24 4.2108e+06
-13.0908 5.867608 -24 4.2108e+06
-13.11392 6.266166 -24 4.2108e+06
-13.13716 6.666053 -24 4.2108e+06
-11.94473 -2.953028 -24 4.2108e+06
-11.96525 -2.582835 -24 4.2108e+06
-11.98579 -2.211461 -24 4.2108e+06
-12.00644 -1.838922 -24 4.2108e+06
-12.0271 -1.465194 -24 4.2108e+06
-12.04788 -1.090288 -24 4.2108e+06
-12.06868 -0.7141817 -24 4.2108e+06
-12.08959 -0.3368828 -24 4.2108e+06
-12.11052 0.04162216 -24 4.2108e+06
-12.13157 0.4213347 -24 4.2108e+06
-12.15264 0.8022622 -24 4.2108e+06
-12.17382 1.184412 -24 4.2108e+06
-12.19502 1.567786 -24 4.2108e+06
-12.21633 1.952397 -24 4.2108e+06
-12.23767 2.33824 -24 4.2108e+06
-12.25912 2.725335 -24 4.2108e+06
-12.2806 3.113673 -24 4.2108e+06
-12.3022 3.503276 -24 4.2108e+06
-12.32381 3.894132 -24 4.2108e+06
-12.34554 4.286269 -24 4.2108e+06
-12.3673 4.67967 -24 4.2108e+06
-12.38918 5.074364 -24 4.2108e+06
-12.41107 5.470329 -24 4.2108e+06
-12.43309 5.867607 -24 4.2108e+06
-12.45513 6.266167 -24 4.2108e+06
-12.47729 6.666052 -24 4.2108e+06
-11.31084 -2.953028 -24 4.2108e+06
-11.33036 -2.582835 -24 4.2108e+06
-11.34989 -2.211461 -24 4.2108e+06
-11.36954 -1.838922 -24 4.2108e+06
-11.3892 -1.465194 -24 4.2108e+06
-11.40896 -1.090288 -24 4.2108e+06
-11.42875 -0.7141817 -24 4.2108e+06
-11.44864 -0.3368828 -24 4.2108e+06
-11.46855 0.04162216 -24 4.2108e+06
-11.48857 0.4213347 -24 4.2108e+06
-11.5086 0.8022622 -24 4.2108e+06
-11.52875 1.184412 -24 4.2108e+06
-11.54892 1.567786 -24 4.2108e+06
-11.5692 1.952397 -24 4.2108e+06
-11.58949 2.33824 -24 4.2108e+06
-11.6099 2.725335 -24 4.2108e+06
-11.63033 3.113673 -24 4.2108e+06
-11.65087 3.503276 -24 4.2108e+06
-11.67143 3.894132 -24 4.2108e+06
-11.6921 4.286269 -24 4.2108e+06
-11.7128 4.67967 -24 4.2108e+06
-11.73361 5.074364 -24 4.2108e+06
-11.75443 5.47033 -24 4.2108e+06
-11.77538 5.867608 -24 4.2108e+06
-11.79634 6.266166 -24 4.2108e+06
-11.81743 6.666053 -24 4.2108e+06
-10.67695 -2.953028 -24 4.2108e+06
-10.69547 -2.582835 -24 4.2108e+06
-10.714 -2.211461 -24 4.2108e+06
-10.73264 -1.838922 -24 4.2108e+06
-10.75129 -1.465194 -24 4.2108e+06
-10.77004 -1.090288 -24 4.2108e+06
-10.78881 -0.7141817 -24 4.2108e+06
-10.80768 -0.3368828 -24 4.2108e+06
-10.82657 0.04162216 -24 4.2108e+06
-10.84556 0.4213347 -24 4.2108e+06
-10.86457 0.8022622 -24 4.2108e+06
-10.88369 1.184412 -24 4.2108e+06
-10.90282 1.567786 -24 4.2108e+06
-10.92206 1.952397 -24 4.2108e+06
-10.94131 2.33824 -24 4.2108e+06
-10.96067 2.725335 -24 4.2108e+06
-10.98005 3.113673 -24 4.2108e+06
-10.99954 3.503276 -24 4.2108e+06
-11.01905 3.894132 -24 4.2108e+06
-11.03866 4.286269 -24 4.2108e+06
-11.05829 4.67967 -24 4.2108e+06
-11.07804 5.074364 -24 4.2108e+06
-11.09779 5.470329 -24 4.2108e+06
-11.11767 5.867608 -24 4.2108e+06
-11.13756 6.266167 -24 4.2108e+06
-11.15756 6.666053 -24 4.2108e+06
-10.04306 -2.953028 -24 4.2108e+06
-10.06058 -2.582835 -24 4.2108e+06
-10.07811 -2.211461 -24 4.2108e+06
-10.09574 -1.838922 -24 4.2108e+06
-10.11338 -1.465194 -24 4.2108e+06
-10.13112 -1.090288 -24 4.2108e+06
-10.14887 -0.7141817 -24 4.2108e+06
-10.16673 -0.3368831 -24 4.2108e+06
-10.18459 0.04162204 -24 4.2108e+06
-10.20256 0.4213347 -24 4.2108e+06
-10.22054 0.8022622 -24 4.2108e+06
-10.23862 1.184412 -24 4.2108e+06
-10.25672 1.567786 -24 4.2108e+06
-10.27492 1.952397 -24 4.2108e+06
-10.29313 2.33824 -24 4.2108e+06
-10.31145 2.725335 -24 4.2108e+06
-10.32978 3.113673 -24 4.2108e+06
-10.34822 3.503276 -24 4.2108e+06
-10.36667 3.894132 -24 4.2108e+06
-10.38522 4.286269 -24 4.2108e+06
-10.40379 4.679669 -24 4.2108e+06
-10.42247 5.074364 -24 4.2108e+06
-10.44116 5.47033 -24 4.2108e+06
-10.45996 5.867608 -24 4.2108e+06
-10.47877 6.266166 -24 4.2108e+06
-10.49769 6.666053 -24 4.2108e+06
-9.409175 -2.953028 -24 4.2108e+06
-9.425691 -2.582835 -24 4.2108e+06
-9.442219 -2.211461 -24 4.2108e+06
-9.458839 -1.838922 -24 4.2108e+06
-9.475472 -1.465194 -24 4.2108e+06
-9.492198 -1.090288 -24 4.2108e+06
-9.508938 -0.7141817 -24 4.2108e+06
-9.525771 -0.3368831 -24 4.2108e+06
-9.542617 0.04162204 -24 4.2108e+06
-9.559556 0.4213347 -24 4.2108e+06
-9.57651 0.8022622 -24 4.2108e+06
-9.59356 1.184412 -24 4.2108e+06
-9.610622 1.567786 -24 4.2108e+06
-9.627781 1.952397 -24 4.2108e+06
-9.644954 2.33824 -24 4.2108e+06
-9.662224 2.725335 -24 4.2108e+06
-9.679507 3.113673 -24 4.2108e+06
-9.69689 3.503276 -24 4.2108e+06
-9.714285 3.894132 -24 4.2108e+06
-9.731779 4.286269 -24 4.2108e+06
-9.749288 4.679669 -24 4.2108e+06
-9.766897 5.074364 -24 4.2108e+06
-9.784521 5.47033 -24 4.2108e+06
-9.802244 5.867608 -24 4.2108e+06
-9.819983 6.266166 -24 4.2108e+06
-9.837824 6.666053 -24 4.2108e+06
-8.775285 -2.953028 -24 4.2108e+06
-8.7908 -2.582835 -24 4.2108e+06
-8.806326 -2.211461 -24 4.2108e+06
-8.821939 -1.838922 -24 4.2108e+06
-8.837564 -1.465194 -24 4.2108e+06
-8.853277 -1.090288 -24 4.2108e+06
-8.869002 -0.7141817 -24 4.2108e+06
-8.884814 -0.3368828 -24 4.2108e+06
-8.900639 0.04162216 -24 4.2108e+06
-8.916553 0.4213347 -24 4.2108e+06
-8.93248 0.8022622 -24 4.2108e+06
-8.948495 1.184412 -24 4.2108e+06
-8.964524 1.567786 -24 4.2108e+06
-8.980642 1.952397 -24 4.2108e+06
-8.996776 2.33824 -24 4.2108e+06
-9.012998 2.725335 -24 4.2108e+06
-9.029234 3.113673 -24 4.2108e+06
-9.045562 3.503276 -24 4.2108e+06
-9.061904 3.894132 -24 4.2108e+06
-9.078339 4.286269 -24 4.2108e+06
-9.094786 4.67967 -24 4.2108e+06
-9.111327 5.074364 -24 4.2108e+06
-9.127882 5.470329 -24 4.2108e+06
-9.144532 5.867608 -24 4.2108e+06
-9.161197 6.266166 -24 4.2108e+06
-9.177955 6.666052 -24 4.2108e+06
-8.141396 -2.953027 -24 4.2108e+06
-8.15591 -2.582835 -24 4.2108e+06
-8.170435 -2.211461 -24 4.2108e+06
-8.18504 -1.838922 -24 4.2108e+06
-8.199657 -1.465194 -24 4.2108e+06
-8.214355 -1.090288 -24 4.2108e+06
-8.229066 -0.7141817 -24 4.2108e+06
-8.243858 -0.3368831 -24 4.2108e+06
-8.258662 0.04162216 -24 4.2108e+06
-8.273549 0.4213347 -24 4.2108e+06
-8.288449 0.8022622 -24 4.2108e+06
-8.303432 1.184412 -24 4.2108e+06
-8.318425 1.567786 -24 4.2108e+06
-8.333504 1.952397 -24 4.2108e+06
-8.348597 2.33824 -24 4.2108e+06
-8.363772 2.725335 -24 4.2108e+06
-8.378962 3.113673 -24 4.2108e+06
-8.394236 3.503276 -24 4.2108e+06
-8.409523 3.894132 -24 4.2108e+06
-8.424896 4.286269 -24 4.2108e+06
-8.440283 4.67967 -24 4.2108e+06
-8.455758 5.074364 -24 4.2108e+06
-8.471245 5.47033 -24 4.2108e+06
-8.48682 5.867608 -24 4.2108e+06
-8.502409 6.266166 -24 4.2108e+06
-8.518086 6.666053 -24 4.2108e+06
-7.782583 -3.071096 -23.74059 4.2108e+06
-7.782583 -2.683628 -23.75373 4.2108e+06
-7.782583 -2.296163 -23.76683 4.2108e+06
-7.782583 -1.908695 -23.77996 4.2108e+06
-7.782583 -1.52123 -23.79306 4.2108e+06
-7.782583 -1.133764 -23.80619 4.2108e+06
-7.782583 -0.7462966 -23.81929 4.2108e+06
-7.782583 -0.3588295 -23.83242 4.2108e+06
-7.782583 0.02863669 -23.84553 4.2108e+06
-7.782583 0.4161037 -23.85866 4.2108e+06
-7.782583 0.8035694 -23.87176 4.2108e+06
-7.782583 1.191037 -23.88489 4.2108e+06
-7.782583 1.578502 -23.89799 4.2108e+06
-7.782583 1.965969 -23.91112 4.2108e+06
-7.782583 2.353436 -23.92422 4.2108e+06
-7.782583 2.740901 -23.93736 4.2108e+06
-7.782583 3.128369 -23.95046 4.2108e+06
-7.782583 3.515834 -23.96359 4.2108e+06
-7.782583 3.903301 -23.97669 4.2108e+06
-7.782583 4.290767 -23.98982 4.2108e+06
-7.785783 4.67967 -24 4.2108e+06
-7.80019 5.074364 -24 4.2108e+06
-7.814608 5.470329 -24 4.2108e+06
-7.829109 5.867608 -24 4.2108e+06
-7.843623 6.266166 -24 4.2108e+06
-7.858219 6.666053 -24 4.2108e+06
-7.782583 -2.955919 -23.08842 4.2108e+06
-7.782583 -2.537456 -23.10257 4.2108e+06
-7.782583 -2.118991 -23.11675 4.2108e+06
-7.782583 -1.700528 -23.1309 4.2108e+06
-7.782583 -1.282065 -23.14508 4.2108e+06
-7.782583 -0.8636005 -23.15923 4.2108e+06
-7.782583 -0.4451358 -23.17342 4.2108e+06
-7.782583 -0.02667248 -23.18757 4.2108e+06
-7.782583 0.3917921 -23.20175 4.2108e+06
-7.782583 0.810255 -23.2159 4.2108e+06
-7.782583 1.228719 -23.23008 4.2108e+06
-7.782583 1.647182 -23.24423 4.2108e+06
-7.782583 2.065647 -23.25841 4.2108e+06
-7.782583 2.48411 -23.27256 4.2108e+06
-7.782583 2.902574 -23.28674 4.2108e+06
-7.782583 3.321038 -23.30089 4.2108e+06
-7.782583 3.739501 -23.31507 4.2108e+06
-7.782583 4.157966 -23.32922 4.2108e+06
-7.782583 4.576429 -23.34341 4.2108e+06
-7.782583 4.994896 -23.35755 4.2108e+06
-7.782583 5.413358 -23.37174 4.2108e+06
-7.782583 5.831822 -23.38589 4.2108e+06
-7.782583 6.250286 -23.40007 4.2108e+06
-7.782583 6.66875 -23.41422 4.2108e+06
-7.782583 -2.820712 -22.3228 4.2108e+06
-7.782583 -2.36586 -22.33821 4.2108e+06
-7.782583 -1.911009 -22.35359 4.2108e+06
-7.782583 -1.456157 -22.36901 4.2108e+06
-7.782583 -1.001305 -22.38439 4.2108e+06
-7.782583 -0.546452 -22.3998 4.2108e+06
-7.782583 -0.09160054 -22.41518 4.2108e+06
-7.782583 0.3632522 -22.4306 4.2108e+06
-7.782583 0.8181033 -22.44598 4.2108e+06
-7.782583 1.272956 -22.46139 4.2108e+06
-7.782583 1.727807 -22.47677 4.2108e+06
-7.782583 2.18266 -22.49219 4.2108e+06
-7.782583 2.637512 -22.50756 4.2108e+06
-7.782583 3.092363 -22.52298 4.2108e+06
-7.782583 3.547216 -22.53836 4.2108e+06
-7.782583 4.002067 -22.55378 4.2108e+06
-7.782583 4.456919 -22.56916 4.2108e+06
-7.782583 4.911771 -22.58457 4.2108e+06
-7.782583 5.366626 -22.59995 4.2108e+06
-7.782583 5.821476 -22.61537 4.2108e+06
-7.782583 6.276329 -22.63074 4.2108e+06
-7.782583 6.73118 -22.64616 4.2108e+06
-7.782583 -3.157924 -21.39449 4.2108e+06
-7.782583 -2.659752 -21.41137 4.2108e+06
-7.782583 -2.161581 -21.42822 4.2108e+06
-7.782583 -1.663411 -21.4451 4.2108e+06
-7.782583 -1.165239 -21.46195 4.2108e+06
-7.782583 -0.6670668 -21.47883 4.2108e+06
-7.782583 -0.168896 -21.49567 4.2108e+06
-7.782583 0.3292762 -21.51256 4.2108e+06
-7.782583 0.8274465 -21.5294 4.2108e+06
-7.782583 1.325619 -21.54629 4.2108e+06
-7.782583 1.823789 -21.56313 4.2108e+06
-7.782583 2.321961 -21.58001 4.2108e+06
-7.782583 2.820132 -21.59686 4.2108e+06
-7.782583 3.318303 -21.61374 4.2108e+06
-7.782583 3.816475 -21.63058 4.2108e+06
-7.782583 4.314644 -21.64747 4.2108e+06
-7.782583 4.812817 -21.66431 4.2108e+06
-7.782583 5.310987 -21.6812 4.2108e+06
-7.782583 5.809161 -21.69804 4.2108e+06
-7.782583 6.307331 -21.71492 4.2108e+06
-7.782583 -3.015515 -20.28941 4.2108e+06
-7.782583 -2.464906 -20.30803 4.2108e+06
-7.782583 -1.914296 -20.32669 4.2108e+06
-7.782583 -1.363685 -20.34531 4.2108e+06
-7.782583 -0.8130736 -20.36397 4.2108e+06
-7.782583 -0.2624638 -20.38259 4.2108e+06
-7.782583 0.2881474 -20.40125 4.2108e+06
-7.782583 0.8387566 -20.41986 4.2108e+06
-7.782583 1.389368 -20.43853 4.2108e+06
-7.782583 1.939977 -20.45714 4.2108e+06
-7.782583 2.490588 -20.4758 4.2108e+06
-7.782583 3.041198 -20.49442 4.2108e+06
-7.782583 3.591808 -20.51308 4.2108e+06
-7.782583 4.142419 -20.5317 4.2108e+06
-7.782583 4.693027 -20.55036 4.2108e+06
-7.782583 5.243639 -20.56898 4.2108e+06
-7.782583 5.794249 -20.58764 4.2108e+06
-7.782583 6.344863 -20.60625 4.2108e+06
-7.782583 -2.8396 -18.92427 4.2108e+06
-7.782583 -2.224213 -18.94513 4.2108e+06
-7.782583 -1.608824 -18.96593 4.2108e+06
-7.782583 -0.9934351 -18.98679 4.2108e+06
-7.782583 -0.3780479 -19.0076 4.2108e+06
-7.782583 0.2373412 -19.02845 4.2108e+06
-7.782583 0.8527279 -19.04926 4.2108e+06
-7.782583 1.468117 -19.07012 4.2108e+06
-7.782583 2.083504 -19.09092 4.2108e+06
-7.782583 2.698893 -19.11178 4.2108e+06
-7.782583 3.314281 -19.13259 4.2108e+06
-7.782583 3.929668 -19.15344 4.2108e+06
-7.782583 4.545056 -19.17425 4.2108e+06
-7.782583 5.160442 -19.19511 4.2108e+06
-7.782583 5.775832 -19.21591 4.2108e+06
-7.782583 6.391219 -19.23677 4.2108e+06
-7.782583 -2.616774 -17.19514 4.2108e+06
-7.782583 -1.919334 -17.21873 4.2108e+06
-7.782583 -1.221893 -17.24236 4.2108e+06
-7.782583 -0.5244539 -17.26595 4.2108e+06
-7.782583 0.1729867 -17.28958 4.2108e+06
-7.782583 0.870425 -17.31316 4.2108e+06
-7.782583 1.567866 -17.3368 4.2108e+06
-7.782583 2.265304 -17.36038 4.2108e+06
-7.782583 2.962745 -17.38402 4.2108e+06
-7.782583 3.660184 -17.4076 4.2108e+06
-7.782583 4.357623 -17.43124 4.2108e+06
-7.782583 5.055064 -17.45482 4.2108e+06
-7.782583 5.752501 -17.47846 4.2108e+06
-7.782583 6.449943 -17.50204 4.2108e+06
