VERSION 0.7
FIELDS x y z rgb
SIZE 4 4 4 4
TYPE F F F F
COUNT 1 1 1 1
WIDTH 459
HEIGHT 1
VIEWPOINT 0 0 0 1 0 0 0
POINTS 459
DATA ascii 
-16.38196 -2.953028 -24 4.2108e+06
-16.40948 -2.582835 -24 4.2108e+06
-16.43703 -2.211461 -24 4.2108e+06
-15.74807 -2.953028 -24 4.2108e+06
-15.77459 -2.582835 -24 4.2108e+06
-15.80114 -2.211462 -24 4.2108e+06
-15.82783 -1.838922 -24 4.2108e+06
-15.85455 -1.465194 -24 4.2108e+06
-15.88141 -1.090288 -24 4.2108e+06
-15.90829 -0.7141817 -24 4.2108e+06
-15.93533 -0.3368831 -24 4.2108e+06
-15.96238 0.04162216 -24 4.2108e+06
-15.98959 0.4213347 -24 4.2108e+06
-16.01682 0.8022622 -24 4.2108e+06
-16.0442 1.184412 -24 4.2108e+06
-16.07161 1.567786 -24 4.2108e+06
-16.09916 1.952397 -24 4.2108e+06
-16.12674 2.338241 -24 4.2108e+06
-16.15448 2.725335 -24 4.2108e+06
-16.18224 3.113673 -24 4.2108e+06
-16.21015 3.503276 -24 4.2108e+06
-16.23809 3.894132 -24 4.2108e+06
-16.26619 4.286269 -24 4.2108e+06
-16.29431 4.67967 -24 4.2108e+06
-16.32259 5.074364 -24 4.2108e+06
-16.35089 5.47033 -24 4.2108e+06
-16.37936 5.867608 -24 4.2108e+06
-16.40785 6.266166 -24 4.2108e+06
-16.4365 6.666052 -24 4.2108e+06
-15.11418 -2.953028 -24 4.2108e+06
-15.1397 -2.582835 -24 4.2108e+06
-15.16525 -2.211461 -24 4.2108e+06
-15.19093 -1.838923 -24 4.2108e+06
-15.21664 -1.465194 -24 4.2108e+06
-15.24249 -1.090288 -24 4.2108e+06
-15.26836 -0.7141817 -24 4.2108e+06
-15.29437 -0.3368831 -24 4.2108e+06
-15.32041 0.04162204 -24 4.2108e+06
-15.34659 0.4213347 -24 4.2108e+06
-15.37279 0.8022622 -24 4.2108e+06
-15.39914 1.184412 -24 4.2108e+06
-15.42551 1.567786 -24 4.2108e+06
-15.45203 1.952397 -24 4.2108e+06
-15.47856 2.33824 -24 4.2108e+06
-15.50525 2.725335 -24 4.2108e+06
-15.53197 3.113673 -24 4.2108e+06
-15.55883 3.503276 -24 4.2108e+06
-15.58571 3.894132 -24 4.2108e+06
-15.61275 4.286269 -24 4.2108e+06
-15.63981 4.67967 -24 4.2108e+06
-15.66702 5.074364 -24 4.2108e+06
-15.69426 5.470329 -24 4.2108e+06
-15.72165 5.867607 -24 4.2108e+06
-15.74906 6.266166 -24 4.2108e+06
-15.77664 6.666053 -24 4.2108e+06
-14.48029 -2.953028 -24 4.2108e+06
-14.50481 -2.582835 -24 4.2108e+06
-14.52936 -2.211461 -24 4.2108e+06
-14.55403 -1.838923 -24 4.2108e+06
-14.57873 -1.465194 -24 4.2108e+06
-14.60357 -1.090288 -24 4.2108e+06
-14.62842 -0.7141817 -24 4.2108e+06
-14.65342 -0.3368831 -24 4.2108e+06
-14.67843 0.04162204 -24 4.2108e+06
-14.70358 0.4213347 -24 4.2108e+06
-14.72876 0.8022622 -24 4.2108e+06
-14.75407 1.184412 -24 4.2108e+06
-14.77941 1.567786 -24 4.2108e+06
-14.80489 1.952397 -24 4.2108e+06
-14.83039 2.33824 -24 4.2108e+06
-14.85603 2.725335 -24 4.2108e+06
-14.88169 3.113673 -24 4.2108e+06
-14.9075 3.503276 -24 4.2108e+06
-14.93333 3.894132 -24 4.2108e+06
-14.95931 4.286269 -24 4.2108e+06
-14.98531 4.679669 -24 4.2108e+06
-15.01145 5.074364 -24 4.2108e+06
-15.03762 5.47033 -24 4.2108e+06
-15.06394 5.867608 -24 4.2108e+06
-15.09028 6.266167 -24 4.2108e+06
-15.11677 6.666052 -24 4.2108e+06
-13.8464 -2.953028 -24 4.2108e+06
-13.86992 -2.582835 -24 4.2108e+06
-13.89346 -2.211461 -24 4.2108e+06
-13.91713 -1.838922 -24 4.2108e+06
-13.94082 -1.465194 -24 4.2108e+06
-13.96465 -1.090288 -24 4.2108e+06
-13.98849 -0.7141817 -24 4.2108e+06
-14.01246 -0.3368828 -24 4.2108e+06
-14.03646 0.04162204 -24 4.2108e+06
-14.06058 0.4213347 -24 4.2108e+06
-14.08473 0.8022622 -24 4.2108e+06
-14.10901 1.184412 -24 4.2108e+06
-14.13331 1.567786 -24 4.2108e+06
-14.15775 1.952397 -24 4.2108e+06
-14.18221 2.33824 -24 4.2108e+06
-14.2068 2.725335 -24 4.2108e+06
-14.23142 3.113673 -24 4.2108e+06
-14.25617 3.503276 -24 4.2108e+06
-14.28095 3.894132 -24 4.2108e+06
-14.30587 4.286269 -24 4.2108e+06
-14.3308 4.67967 -24 4.2108e+06
-14.35588 5.074364 -24 4.2108e+06
-14.38098 5.47033 -24 4.2108e+06
-14.40623 5.867608 -24 4.2108e+06
-14.43149 6.266166 -24 4.2108e+06
-14.4569 6.666054 -24 4.2108e+06
-13.21251 -2.953028 -24 4.2108e+06
-13.23503 -2.582835 -24 4.2108e+06
-13.25757 -2.211461 -24 4.2108e+06
-13.28024 -1.838922 -24 4.2108e+06
-13.30292 -1.465194 -24 4.2108e+06
-13.32572 -1.090288 -24 4.2108e+06
-13.34855 -0.7141817 -24 4.2108e+06
-13.37151 -0.3368831 -24 4.2108e+06
-13.39448 0.04162204 -24 4.2108e+06
-13.41758 0.4213347 -24 4.2108e+06
-13.4407 0.8022622 -24 4.2108e+06
-13.46394 1.184412 -24 4.2108e+06
-13.48721 1.567786 -24 4.2108e+06
-13.51061 1.952397 -24 4.2108e+06
-13.53403 2.33824 -24 4.2108e+06
-13.55758 2.725335 -24 4.2108e+06
-13.58115 3.113673 -24 4.2108e+06
-13.60485 3.503276 -24 4.2108e+06
-13.62857 3.894132 -24 4.2108e+06
-13.65242 4.286269 -24 4.2108e+06
-13.6763 4.67967 -24 4.2108e+06
-13.70031 5.074364 -24 4.2108e+06
-13.72435 5.470329 -24 4.2108e+06
-13.74851 5.867608 -24 4.2108e+06
-13.7727 6.266166 -24 4.2108e+06
-13.79703 6.666053 -24 4.2108e+06
-12.57862 -2.953028 -24 4.2108e+06
-12.60014 -2.582835 -24 4.2108e+06
-12.62168 -2.211461 -24 4.2108e+06
-12.64334 -1.838922 -24 4.2108e+06
-12.66501 -1.465194 -24 4.2108e+06
-12.6868 -1.090287 -24 4.2108e+06
-12.70862 -0.7141819 -24 4.2108e+06
-12.73055 -0.3368833 -24 4.2108e+06
-12.7525 0.04162204 -24 4.2108e+06
-12.77457 0.4213347 -24 4.2108e+06
-12.79666 0.8022622 -24 4.2108e+06
-12.81888 1.184412 -24 4.2108e+06
-12.84111 1.567786 -24 4.2108e+06
-12.86347 1.952397 -24 4.2108e+06
-12.88585 2.33824 -24 4.2108e+06
-12.90835 2.725335 -24 4.2108e+06
-12.93087 3.113673 -24 4.2108e+06
-12.95352 3.503276 -24 4.2108e+06
-12.97619 3.894132 -24 4.2108e+06
-12.99898 4.286269 -24 4.2108e+06
-13.0218 4.67967 -24 4.2108e+06
-13.04474 5.074364 -24 4.2108e+06
-13.06771 5.47033 -24 4.2108e+06
-13.0908 5.867608 -24 4.2108e+06
-13.11392 6.266166 -24 4.2108e+06
-13.13716 6.666053 -24 4.2108e+06
-11.94473 -2.953028 -24 4.2108e+06
-11.96525 -2.582835 -24 4.2108e+06
-11.98579 -2.211461 -24 4.2108e+06
-12.00644 -1.838922 -24 4.2108e+06
-12.0271 -1.465194 -24 4.2108e+06
-12.04788 -1.090288 -24 4.2108e+06
-12.06868 -0.7141817 -24 4.2108e+06
-12.08959 -0.3368828 -24 4.2108e+06
-12.11052 0.04162216 -24 4.2108e+06
-12.13157 0.4213347 -24 4.2108e+06
-12.15264 0.8022622 -24 4.2108e+06
-12.17382 1.184412 -24 4.2108e+06
-12.19502 1.567786 -24 4.2108e+06
-12.21633 1.952397 -24 4.2108e+06
-12.23767 2.33824 -24 4.2108e+06
-12.25912 2.725335 -24 4.2108e+06
-12.2806 3.113673 -24 4.2108e+06
-12.3022 3.503276 -24 4.2108e+06
-12.32381 3.894132 -24 4.2108e+06
-12.34554 4.286269 -24 4.2108e+06
-12.3673 4.67967 -24 4.2108e+06
-12.38918 5.074364 -24 4.2108e+06
-12.41107 5.470329 -24 4.2108e+06
-12.43309 5.867607 -24 4.2108e+06
-12.45513 6.266167 -24 4.2108e+06
-12.47729 6.666052 -24 4.2108e+06
-11.31084 -2.953028 -24 4.2108e+06
-11.33036 -2.582835 -24 4.2108e+06
-11.34989 -2.211461 -24 4.2108e+06
-11.36954 -1.838922 -24 4.2108e+06
-11.3892 -1.465194 -24 4.2108e+06
-11.40896 -1.090288 -24 4.2108e+06
-11.42875 -0.7141817 -24 4.2108e+06
-11.44864 -0.3368828 -24 4.2108e+06
-11.46855 0.04162216 -24 4.2108e+06
-11.48857 0.4213347 -24 4.2108e+06
-11.5086 0.8022622 -24 4.2108e+06
-11.52875 1.184412 -24 4.2108e+06
-11.54892 1.567786 -24 4.2108e+06
-11.5692 1.952397 -24 4.2108e+06
-11.58949 2.33824 -24 4.2108e+06
-11.6099 2.725335 -24 4.2108e+06
-11.63033 3.113673 -24 4.2108e+06
-11.65087 3.503276 -24 4.2108e+06
-11.67143 3.894132 -24 4.2108e+06
-11.6921 4.286269 -24 4.2108e+06
-11.7128 4.67967 -24 4.2108e+06
-11.73361 5.074364 -24 4.2108e+06
-11.75443 5.47033 -24 4.2108e+06
-11.77538 5.867608 -24 4.2108e+06
-11.79634 6.266166 -24 4.2108e+06
-11.81743 6.666053 -24 4.2108e+06
-10.67695 -2.953028 -24 4.2108e+06
-10.69547 -2.582835 -24 4.2108e+06
-10.714 -2.211461 -24 4.2108e+06
-10.73264 -1.838922 -24 4.2108e+06
-10.75129 -1.465194 -24 4.2108e+06
-10.77004 -1.090288 -24 4.2108e+06
-10.78881 -0.7141817 -24 4.2108e+06
-10.80768 -0.3368828 -24 4.2108e+06
-10.82657 0.04162216 -24 4.2108e+06
-10.84556 0.4213347 -24 4.2108e+06
-10.86457 0.8022622 -24 4.2108e+06
-10.88369 1.184412 -24 4.2108e+06
-10.90282 1.567786 -24 4.2108e+06
-10.92206 1.952397 -24 4.2108e+06
-10.94131 2.33824 -24 4.2108e+06
-10.96067 2.725335 -24 4.2108e+06
-10.98005 3.113673 -24 4.2108e+06
-10.99954 3.503276 -24 4.2108e+06
-11.01905 3.894132 -24 4.2108e+06
-11.03866 4.286269 -24 4.2108e+06
-11.05829 4.67967 -24 4.2108e+06
-11.07804 5.074364 -24 4.2108e+06
-11.09779 5.470329 -24 4.2108e+06
-11.11767 5.867608 -24 4.2108e+06
-11.13756 6.266167 -24 4.2108e+06
-11.15756 6.666053 -24 4.2108e+06
-10.04306 -2.953028 -24 4.2108e+06
-10.06058 -2.582835 -24 4.2108e+06
-10.07811 -2.211461 -24 4.2108e+06
-10.09574 -1.838922 -24 4.2108e+06
-10.11338 -1.465194 -24 4.2108e+06
-10.13112 -1.090288 -24 4.2108e+06
-10.14887 -0.7141817 -24 4.2108e+06
-10.16673 -0.3368831 -24 4.2108e+06
-10.18459 0.04162204 -24 4.2108e+06
-10.20256 0.4213347 -24 4.2108e+06
-10.22054 0.8022622 -24 4.2108e+06
-10.23862 1.184412 -24 4.2108e+06
-10.25672 1.567786 -24 4.2108e+06
-10.27492 1.952397 -24 4.2108e+06
-10.29313 2.33824 -24 4.2108e+06
-10.31145 2.725335 -24 4.2108e+06
-10.32978 3.113673 -24 4.2108e+06
-10.34822 3.503276 -24 4.2108e+06
-10.36667 3.894132 -24 4.2108e+06
-10.38522 4.286269 -24 4.2108e+06
-10.40379 4.679669 -24 4.2108e+06
-10.42247 5.074364 -24 4.2108e+06
-10.44116 5.47033 -24 4.2108e+06
-10.45996 5.867608 -24 4.2108e+06
-10.47877 6.266166 -24 4.2108e+06
-10.49769 6.666053 -24 4.2108e+06
-9.409175 -2.953028 -24 4.2108e+06
-9.425691 -2.582835 -24 4.2108e+06
-9.442219 -2.211461 -24 4.2108e+06
-9.458839 -1.838922 -24 4.2108e+06
-9.475472 -1.465194 -24 4.2108e+06
-9.492198 -1.090288 -24 4.2108e+06
-9.508938 -0.7141817 -24 4.2108e+06
-9.525771 -0.3368831 -24 4.2108e+06
-9.542617 0.04162204 -24 4.2108e+06
-9.559556 0.4213347 -24 4.2108e+06
-9.57651 0.8022622 -24 4.2108e+06
-9.59356 1.184412 -24 4.2108e+06
-9.610622 1.567786 -24 4.2108e+06
-9.627781 1.952397 -24 4.2108e+06
-9.644954 2.33824 -24 4.2108e+06
-9.662224 2.725335 -24 4.2108e+06
-9.679507 3.113673 -24 4.2108e+06
-9.69689 3.503276 -24 4.2108e+06
-9.714285 3.894132 -24 4.2108e+06
-9.731779 4.286269 -24 4.2108e+06
-9.749288 4.679669 -24 4.2108e+06
-9.766897 5.074364 -24 4.2108e+06
-9.784521 5.47033 -24 4.2108e+06
-9.802244 5.867608 -24 4.2108e+06
-9.819983 6.266166 -24 4.2108e+06
-9.837824 6.666053 -24 4.2108e+06
-8.775285 -2.953028 -24 4.2108e+06
-8.7908 -2.582835 -24 4.2108e+06
-8.806326 -2.211461 -24 4.2108e+06
-8.821939 -1.838922 -24 4.2108e+06
-8.837564 -1.465194 -24 4.2108e+06
-8.853277 -1.090288 -24 4.2108e+06
-8.869002 -0.7141817 -24 4.2108e+06
-8.884814 -0.3368828 -24 4.2108e+06
-8.900639 0.04162216 -24 4.2108e+06
-8.916553 0.4213347 -24 4.2108e+06
-8.93248 0.8022622 -24 4.2108e+06
-8.948495 1.184412 -24 4.2108e+06
-8.964524 1.567786 -24 4.2108e+06
-8.980642 1.952397 -24 4.2108e+06
-8.996776 2.33824 -24 4.2108e+06
-9.012998 2.725335 -24 4.2108e+06
-9.029234 3.113673 -24 4.2108e+06
-9.045562 3.503276 -24 4.2108e+06
-9.061904 3.894132 -24 4.2108e+06
-9.078339 4.286269 -24 4.2108e+06
-9.094786 4.67967 -24 4.2108e+06
-9.111327 5.074364 -24 4.2108e+06
-9.127882 5.470329 -24 4.2108e+06
-9.144532 5.867608 -24 4.2108e+06
-9.161197 6.266166 -24 4.2108e+06
-9.177955 6.666052 -24 4.2108e+06
-8.437439 -3.071331 -23.74007 4.2108e+06
-8.437439 -2.683841 -23.75321 4.2108e+06
-8.437439 -2.29635 -23.76631 4.2108e+06
-8.437439 -1.908859 -23.77944 4.2108e+06
-8.437439 -1.521369 -23.79254 4.2108e+06
-8.437439 -1.133879 -23.80568 4.2108e+06
-8.437439 -0.7463877 -23.81878 4.2108e+06
-8.437439 -0.3588967 -23.83191 4.2108e+06
-8.437439 0.02859354 -23.84501 4.2108e+06
-8.437439 0.4160849 -23.85815 4.2108e+06
-8.437439 0.8035746 -23.87125 4.2108e+06
-8.437439 1.191066 -23.88438 4.2108e+06
-8.437439 1.578556 -23.89748 4.2108e+06
-8.437439 1.966047 -23.91061 4.2108e+06
-8.437439 2.353537 -23.92372 4.2108e+06
-8.437439 2.741028 -23.93685 4.2108e+06
-8.437439 3.128519 -23.94995 4.2108e+06
-8.437439 3.516008 -23.96308 4.2108e+06
-8.437439 3.903499 -23.97618 4.2108e+06
-8.437439 4.29099 -23.98932 4.2108e+06
-8.440283 4.67967 -24 4.2108e+06
-8.455758 5.074364 -24 4.2108e+06
-8.471245 5.47033 -24 4.2108e+06
-8.48682 5.867608 -24 4.2108e+06
-8.502409 6.266166 -24 4.2108e+06
-8.518086 6.666053 -24 4.2108e+06
-8.437439 -2.935976 -23.13715 4.2108e+06
-8.437439 -2.519783 -23.15122 4.2108e+06
-8.437439 -2.103589 -23.16533 4.2108e+06
-8.437439 -1.687396 -23.1794 4.2108e+06
-8.437439 -1.271203 -23.19351 4.2108e+06
-8.437439 -0.8550093 -23.20758 4.2108e+06
-8.437439 -0.4388149 -23.22168 4.2108e+06
-8.437439 -0.02262163 -23.23576 4.2108e+06
-8.437439 0.3935726 -23.24986 4.2108e+06
-8.437439 0.8097653 -23.26393 4.2108e+06
-8.437439 1.22596 -23.27804 4.2108e+06
-8.437439 1.642152 -23.29211 4.2108e+06
-8.437439 2.058347 -23.30622 4.2108e+06
-8.437439 2.47454 -23.32029 4.2108e+06
-8.437439 2.890733 -23.33439 4.2108e+06
-8.437439 3.306927 -23.34846 4.2108e+06
-8.437439 3.723119 -23.36257 4.2108e+06
-8.437439 4.139314 -23.37664 4.2108e+06
-8.437439 4.555507 -23.39075 4.2108e+06
-8.437439 4.971704 -23.40482 4.2108e+06
-8.437439 5.387896 -23.41893 4.2108e+06
-8.437439 5.80409 -23.433 4.2108e+06
-8.437439 6.220284 -23.44711 4.2108e+06
-8.437439 6.636477 -23.46118 4.2108e+06
-8.437439 -2.778967 -22.43772 4.2108e+06
-8.437439 -2.329476 -22.45295 4.2108e+06
-8.437439 -1.879988 -22.46815 4.2108e+06
-8.437439 -1.4305 -22.48339 4.2108e+06
-8.437439 -0.9810102 -22.49858 4.2108e+06
-8.437439 -0.5315201 -22.51382 4.2108e+06
-8.437439 -0.08203149 -22.52901 4.2108e+06
-8.437439 0.3674583 -22.54425 4.2108e+06
-8.437439 0.8169466 -22.55945 4.2108e+06
-8.437439 1.266437 -22.57468 4.2108e+06
-8.437439 1.715925 -22.58988 4.2108e+06
-8.437439 2.165415 -22.60511 4.2108e+06
-8.437439 2.614903 -22.62031 4.2108e+06
-8.437439 3.064392 -22.63554 4.2108e+06
-8.437439 3.513882 -22.65074 4.2108e+06
-8.437439 3.96337 -22.66598 4.2108e+06
-8.437439 4.412859 -22.68118 4.2108e+06
-8.437439 4.862348 -22.69641 4.2108e+06
-8.437439 5.31184 -22.71161 4.2108e+06
-8.437439 5.761328 -22.72684 4.2108e+06
-8.437439 6.210818 -22.74204 4.2108e+06
-8.437439 6.660306 -22.75727 4.2108e+06
-8.437439 -3.083225 -21.60013 4.2108e+06
-8.437439 -2.594649 -21.61669 4.2108e+06
-8.437439 -2.106074 -21.63321 4.2108e+06
-8.437439 -1.6175 -21.64977 4.2108e+06
-8.437439 -1.128924 -21.66629 4.2108e+06
-8.437439 -0.6403482 -21.68284 4.2108e+06
-8.437439 -0.1517733 -21.69936 4.2108e+06
-8.437439 0.3368026 -21.71592 4.2108e+06
-8.437439 0.8253767 -21.73244 4.2108e+06
-8.437439 1.313953 -21.749 4.2108e+06
-8.437439 1.802527 -21.76552 4.2108e+06
-8.437439 2.291103 -21.78208 4.2108e+06
-8.437439 2.779678 -21.7986 4.2108e+06
-8.437439 3.268252 -21.81516 4.2108e+06
-8.437439 3.756828 -21.83168 4.2108e+06
-8.437439 4.245401 -21.84824 4.2108e+06
-8.437439 4.733977 -21.86475 4.2108e+06
-8.437439 5.222552 -21.88131 4.2108e+06
-8.437439 5.711131 -21.89783 4.2108e+06
-8.437439 6.199704 -21.91439 4.2108e+06
-8.437439 6.68828 -21.93091 4.2108e+06
-8.437439 -2.91033 -20.62113 4.2108e+06
-8.437439 -2.375224 -20.63923 4.2108e+06
-8.437439 -1.840119 -20.65736 4.2108e+06
-8.437439 -1.305012 -20.67546 4.2108e+06
-8.437439 -0.7699051 -20.69359 4.2108e+06
-8.437439 -0.2347994 -20.71169 4.2108e+06
-8.437439 0.3003076 -20.72982 4.2108e+06
-8.437439 0.8354126 -20.74791 4.2108e+06
-8.437439 1.37052 -20.76605 4.2108e+06
-8.437439 1.905625 -20.78414 4.2108e+06
-8.437439 2.440732 -20.80228 4.2108e+06
-8.437439 2.975837 -20.82037 4.2108e+06
-8.437439 3.510943 -20.8385 4.2108e+06
-8.437439 4.04605 -20.8566 4.2108e+06
-8.437439 4.581155 -20.87473 4.2108e+06
-8.437439 5.116261 -20.89283 4.2108e+06
-8.437439 5.651367 -20.91096 4.2108e+06
-8.437439 6.186477 -20.92905 4.2108e+06
-8.437439 6.721581 -20.94719 4.2108e+06
-8.437439 -2.701037 -19.43599 4.2108e+06
-8.437439 -2.109605 -19.45603 4.2108e+06
-8.437439 -1.518172 -19.47603 4.2108e+06
-8.437439 -0.9267371 -19.49607 4.2108e+06
-8.437439 -0.3353047 -19.51607 4.2108e+06
-8.437439 0.2561295 -19.53612 4.2108e+06
-8.437439 0.8475613 -19.55611 4.2108e+06
-8.437439 1.438995 -19.57616 4.2108e+06
-8.437439 2.030427 -19.59616 4.2108e+06
-8.437439 2.621861 -19.6162 4.2108e+06
-8.437439 3.213294 -19.6362 4.2108e+06
-8.437439 3.804726 -19.65624 4.2108e+06
-8.437439 4.39616 -19.67624 4.2108e+06
-8.437439 4.987592 -19.69629 4.2108e+06
-8.437439 5.579026 -19.71628 4.2108e+06
-8.437439 6.170458 -19.73632 4.2108e+06
-8.437439 6.761895 -19.75632 4.2108e+06
-8.437439 -3.103512 -17.94963 4.2108e+06
-8.437439 -2.442499 -17.97204 4.2108e+06
-8.437439 -1.781486 -17.99438 4.2108e+06
-8.437439 -1.120471 -18.01679 4.2108e+06
-8.437439 -0.4594581 -18.03914 4.2108e+06
-8.437439 0.2015564 -18.06154 4.2108e+06
-8.437439 0.8625685 -18.08389 4.2108e+06
-8.437439 1.523583 -18.10629 4.2108e+06
-8.437439 2.184595 -18.12864 4.2108e+06
-8.437439 2.84561 -18.15105 4.2108e+06
-8.437439 3.506623 -18.1734 4.2108e+06
-8.437439 4.167636 -18.1958 4.2108e+06
-8.437439 4.82865 -18.21815 4.2108e+06
-8.437439 5.489661 -18.24055 4.2108e+06
-8.437439 6.150677 -18.2629 4.2108e+06
