VERSION 0.7
FIELDS x y z rgb
SIZE 4 4 4 4
TYPE F F F F
COUNT 1 1 1 1
WIDTH 441
HEIGHT 1
VIEWPOINT 0 0 0 1 0 0 0
POINTS 441
DATA ascii 
-15.11418 -2.953028 -24 4.2108e+06
-15.1397 -2.582835 -24 4.2108e+06
-15.16525 -2.211461 -24 4.2108e+06
-15.19093 -1.838923 -24 4.2108e+06
-15.21664 -1.465194 -24 4.2108e+06
-14.48029 -2.953028 -24 4.2108e+06
-14.50481 -2.582835 -24 4.2108e+06
-14.52936 -2.211461 -24 4.2108e+06
-14.55403 -1.838923 -24 4.2108e+06
-14.57873 -1.465194 -24 4.2108e+06
-14.60357 -1.090288 -24 4.2108e+06
-14.62842 -0.7141817 -24 4.2108e+06
-14.65342 -0.3368831 -24 4.2108e+06
-14.67843 0.04162204 -24 4.2108e+06
-14.70358 0.4213347 -24 4.2108e+06
-14.72876 0.8022622 -24 4.2108e+06
-14.75407 1.184412 -24 4.2108e+06
-14.77941 1.567786 -24 4.2108e+06
-14.80489 1.952397 -24 4.2108e+06
-14.83039 2.33824 -24 4.2108e+06
-14.85603 2.725335 -24 4.2108e+06
-14.88169 3.113673 -24 4.2108e+06
-14.9075 3.503276 -24 4.2108e+06
-14.93333 3.894132 -24 4.2108e+06
-14.95931 4.286269 -24 4.2108e+06
-14.98531 4.679669 -24 4.2108e+06
-15.01145 5.074364 -24 4.2108e+06
-15.03762 5.47033 -24 4.2108e+06
-15.06394 5.867608 -24 4.2108e+06
-15.09028 6.266167 -24 4.2108e+06
-15.11677 6.666052 -24 4.2108e+06
-13.8464 -2.953028 -24 4.2108e+06
-13.86992 -2.582835 -24 4.2108e+06
-13.89346 -2.211461 -24 4.2108e+06
-13.91713 -1.838922 -24 4.2108e+06
-13.94082 -1.465194 -24 4.2108e+06
-13.96465 -1.090288 -24 4.2108e+06
-13.98849 -0.7141817 -24 4.2108e+06
-14.01246 -0.3368828 -24 4.2108e+06
-14.03646 0.04162204 -24 4.2108e+06
-14.06058 0.4213347 -24 4.2108e+06
-14.08473 0.8022622 -24 4.2108e+06
-14.10901 1.184412 -24 4.2108e+06
-14.13331 1.567786 -24 4.2108e+06
-14.15775 1.952397 -24 4.2108e+06
-14.18221 2.33824 -24 4.2108e+06
-14.2068 2.725335 -24 4.2108e+06
-14.23142 3.113673 -24 4.2108e+06
-14.25617 3.503276 -24 4.2108e+06
-14.28095 3.894132 -24 4.2108e+06
-14.30587 4.286269 -24 4.2108e+06
-14.3308 4.67967 -24 4.2108e+06
-14.35588 5.074364 -24 4.2108e+06
-14.38098 5.47033 -24 4.2108e+06
-14.40623 5.867608 -24 4.2108e+06
-14.43149 6.266166 -24 4.2108e+06
-14.4569 6.666054 -24 4.2108e+06
-13.21251 -2.953028 -24 4.2108e+06
-13.23503 -2.582835 -24 4.2108e+06
-13.25757 -2.211461 -24 4.2108e+06
-13.28024 -1.838922 -24 4.2108e+06
-13.30292 -1.465194 -24 4.2108e+06
-13.32572 -1.090288 -24 4.2108e+06
-13.34855 -0.7141817 -24 4.2108e+06
-13.37151 -0.3368831 -24 4.2108e+06
-13.39448 0.04162204 -24 4.2108e+06
-13.41758 0.4213347 -24 4.2108e+06
-13.4407 0.8022622 -24 4.2108e+06
-13.46394 1.184412 -24 4.2108e+06
-13.48721 1.567786 -24 4.2108e+06
-13.51061 1.952397 -24 4.2108e+06
-13.53403 2.33824 -24 4.2108e+06
-13.55758 2.725335 -24 4.2108e+06
-13.58115 3.113673 -24 4.2108e+06
-13.60485 3.503276 -24 4.2108e+06
-13.62857 3.894132 -24 4.2108e+06
-13.65242 4.286269 -24 4.2108e+06
-13.6763 4.67967 -24 4.2108e+06
-13.70031 5.074364 -24 4.2108e+06
-13.72435 5.470329 -24 4.2108e+06
-13.74851 5.867608 -24 4.2108e+06
-13.7727 6.266166 -24 4.2108e+06
-13.79703 6.666053 -24 4.2108e+06
-12.57862 -2.953028 -24 4.2108e+06
-12.60014 -2.582835 -24 4.2108e+06
-12.62168 -2.211461 -24 4.2108e+06
-12.64334 -1.838922 -24 4.2108e+06
-12.66501 -1.465194 -24 4.2108e+06
-12.6868 -1.090287 -24 4.2108e+06
-12.70862 -0.7141819 -24 4.2108e+06
-12.73055 -0.3368833 -24 4.2108e+06
-12.7525 0.04162204 -24 4.2108e+06
-12.77457 0.4213347 -24 4.2108e+06
-12.79666 0.8022622 -24 4.2108e+06
-12.81888 1.184412 -24 4.2108e+06
-12.84111 1.567786 -24 4.2108e+06
-12.86347 1.952397 -24 4.2108e+06
-12.88585 2.33824 -24 4.2108e+06
-12.90835 2.725335 -24 4.2108e+06
-12.93087 3.113673 -24 4.2108e+06
-12.95352 3.503276 -24 4.2108e+06
-12.97619 3.894132 -24 4.2108e+06
-12.99898 4.286269 -24 4.2108e+06
-13.0218 4.67967 -24 4.2108e+06
-13.04474 5.074364 -24 4.2108e+06
-13.06771 5.47033 -24 4.2108e+06
-13.0908 5.867608 -24 4.2108e+06
-13.11392 6.266166 -24 4.2108e+06
-13.13716 6.666053 -24 4.2108e+06
-11.94473 -2.953028 -24 4.2108e+06
-11.96525 -2.582835 -24 4.2108e+06
-11.98579 -2.211461 -24 4.2108e+06
-12.00644 -1.838922 -24 4.2108e+06
-12.0271 -1.465194 -24 4.2108e+06
-12.04788 -1.090288 -24 4.2108e+06
-12.06868 -0.7141817 -24 4.2108e+06
-12.08959 -0.3368828 -24 4.2108e+06
-12.11052 0.04162216 -24 4.2108e+06
-12.13157 0.4213347 -24 4.2108e+06
-12.15264 0.8022622 -24 4.2108e+06
-12.17382 1.184412 -24 4.2108e+06
-12.19502 1.567786 -24 4.2108e+06
-12.21633 1.952397 -24 4.2108e+06
-12.23767 2.33824 -24 4.2108e+06
-12.25912 2.725335 -24 4.2108e+06
-12.2806 3.113673 -24 4.2108e+06
-12.3022 3.503276 -24 4.2108e+06
-12.32381 3.894132 -24 4.2108e+06
-12.34554 4.286269 -24 4.2108e+06
-12.3673 4.67967 -24 4.2108e+06
-12.38918 5.074364 -24 4.2108e+06
-12.41107 5.470329 -24 4.2108e+06
-12.43309 5.867607 -24 4.2108e+06
-12.45513 6.266167 -24 4.2108e+06
-12.47729 6.666052 -24 4.2108e+06
-11.31084 -2.953028 -24 4.2108e+06
-11.33036 -2.582835 -24 4.2108e+06
-11.34989 -2.211461 -24 4.2108e+06
-11.36954 -1.838922 -24 4.2108e+06
-11.3892 -1.465194 -24 4.2108e+06
-11.40896 -1.090288 -24 4.2108e+06
-11.42875 -0.7141817 -24 4.2108e+06
-11.44864 -0.3368828 -24 4.2108e+06
-11.46855 0.04162216 -24 4.2108e+06
-11.48857 0.4213347 -24 4.2108e+06
-11.5086 0.8022622 -24 4.2108e+06
-11.52875 1.184412 -24 4.2108e+06
-11.54892 1.567786 -24 4.2108e+06
-11.5692 1.952397 -24 4.2108e+06
-11.58949 2.33824 -24 4.2108e+06
-11.6099 2.725335 -24 4.2108e+06
-11.63033 3.113673 -24 4.2108e+06
-11.65087 3.503276 -24 4.2108e+06
-11.67143 3.894132 -24 4.2108e+06
-11.6921 4.286269 -24 4.2108e+06
-11.7128 4.67967 -24 4.2108e+06
-11.73361 5.074364 -24 4.2108e+06
-11.75443 5.47033 -24 4.2108e+06
-11.77538 5.867608 -24 4.2108e+06
-11.79634 6.266166 -24 4.2108e+06
-11.81743 6.666053 -24 4.2108e+06
-10.67695 -2.953028 -24 4.2108e+06
-10.69547 -2.582835 -24 4.2108e+06
-10.714 -2.211461 -24 4.2108e+06
-10.73264 -1.838922 -24 4.2108e+06
-10.75129 -1.465194 -24 4.2108e+06
-10.77004 -1.090288 -24 4.2108e+06
-10.78881 -0.7141817 -24 4.2108e+06
-10.80768 -0.3368828 -24 4.2108e+06
-10.82657 0.04162216 -24 4.2108e+06
-10.84556 0.4213347 -24 4.2108e+06
-10.86457 0.8022622 -24 4.2108e+06
-10.88369 1.184412 -24 4.2108e+06
-10.90282 1.567786 -24 4.2108e+06
-10.92206 1.952397 -24 4.2108e+06
-10.94131 2.33824 -24 4.2108e+06
-10.96067 2.725335 -24 4.2108e+06
-10.98005 3.113673 -24 4.2108e+06
-10.99954 3.503276 -24 4.2108e+06
-11.01905 3.894132 -24 4.2108e+06
-11.03866 4.286269 -24 4.2108e+06
-11.05829 4.67967 -24 4.2108e+06
-11.07804 5.074364 -24 4.2108e+06
-11.09779 5.470329 -24 4.2108e+06
-11.11767 5.867608 -24 4.2108e+06
-11.13756 6.266167 -24 4.2108e+06
-11.15756 6.666053 -24 4.2108e+06
-10.04306 -2.953028 -24 4.2108e+06
-10.06058 -2.582835 -24 4.2108e+06
-10.07811 -2.211461 -24 4.2108e+06
-10.09574 -1.838922 -24 4.2108e+06
-10.11338 -1.465194 -24 4.2108e+06
-10.13112 -1.090288 -24 4.2108e+06
-10.14887 -0.7141817 -24 4.2108e+06
-10.16673 -0.3368831 -24 4.2108e+06
-10.18459 0.04162204 -24 4.2108e+06
-10.20256 0.4213347 -24 4.2108e+06
-10.22054 0.8022622 -24 4.2108e+06
-10.23862 1.184412 -24 4.2108e+06
-10.25672 1.567786 -24 4.2108e+06
-10.27492 1.952397 -24 4.2108e+06
-10.29313 2.33824 -24 4.2108e+06
-10.31145 2.725335 -24 4.2108e+06
-10.32978 3.113673 -24 4.2108e+06
-10.34822 3.503276 -24 4.2108e+06
-10.36667 3.894132 -24 4.2108e+06
-10.38522 4.286269 -24 4.2108e+06
-10.40379 4.679669 -24 4.2108e+06
-10.42247 5.074364 -24 4.2108e+06
-10.44116 5.47033 -24 4.2108e+06
-10.45996 5.867608 -24 4.2108e+06
-10.47877 6.266166 -24 4.2108e+06
-10.49769 6.666053 -24 4.2108e+06
-9.409175 -2.953028 -24 4.2108e+06
-9.425691 -2.582835 -24 4.2108e+06
-9.442219 -2.211461 -24 4.2108e+06
-9.458839 -1.838922 -24 4.2108e+06
-9.475472 -1.465194 -24 4.2108e+06
-9.492198 -1.090288 -24 4.2108e+06
-9.508938 -0.7141817 -24 4.2108e+06
-9.525771 -0.3368831 -24 4.2108e+06
-9.542617 0.04162204 -24 4.2108e+06
-9.559556 0.4213347 -24 4.2108e+06
-9.57651 0.8022622 -24 4.2108e+06
-9.59356 1.184412 -24 4.2108e+06
-9.610622 1.567786 -24 4.2108e+06
-9.627781 1.952397 -24 4.2108e+06
-9.644954 2.33824 -24 4.2108e+06
-9.662224 2.725335 -24 4.2108e+06
-9.679507 3.113673 -24 4.2108e+06
-9.69689 3.503276 -24 4.2108e+06
-9.714285 3.894132 -24 4.2108e+06
-9.731779 4.286269 -24 4.2108e+06
-9.749288 4.679669 -24 4.2108e+06
-9.766897 5.074364 -24 4.2108e+06
-9.784521 5.47033 -24 4.2108e+06
-9.802244 5.867608 -24 4.2108e+06
-9.819983 6.266166 -24 4.2108e+06
-9.837824 6.666053 -24 4.2108e+06
-8.775285 -2.953028 -24 4.2108e+06
-8.7908 -2.582835 -24 4.2108e+06
-8.806326 -2.211461 -24 4.2108e+06
-8.821939 -1.838922 -24 4.2108e+06
-8.837564 -1.465194 -24 4.2108e+06
-8.853277 -1.090288 -24 4.2108e+06
-8.869002 -0.7141817 -24 4.2108e+06
-8.884814 -0.3368828 -24 4.2108e+06
-8.900639 0.04162216 -24 4.2108e+06
-8.916553 0.4213347 -24 4.2108e+06
-8.93248 0.8022622 -24 4.2108e+06
-8.948495 1.184412 -24 4.2108e+06
-8.964524 1.567786 -24 4.2108e+06
-8.980642 1.952397 -24 4.2108e+06
-8.996776 2.33824 -24 4.2108e+06
-9.012998 2.725335 -24 4.2108e+06
-9.029234 3.113673 -24 4.2108e+06
-9.045562 3.503276 -24 4.2108e+06
-9.061904 3.894132 -24 4.2108e+06
-9.078339 4.286269 -24 4.2108e+06
-9.094786 4.67967 -24 4.2108e+06
-9.111327 5.074364 -24 4.2108e+06
-9.127882 5.470329 -24 4.2108e+06
-9.144532 5.867608 -24 4.2108e+06
-9.161197 6.266166 -24 4.2108e+06
-9.177955 6.666052 -24 4.2108e+06
-8.141396 -2.953027 -24 4.2108e+06
-8.15591 -2.582835 -24 4.2108e+06
-8.170435 -2.211461 -24 4.2108e+06
-8.18504 -1.838922 -24 4.2108e+06
-8.199657 -1.465194 -24 4.2108e+06
-8.214355 -1.090288 -24 4.2108e+06
-8.229066 -0.7141817 -24 4.2108e+06
-8.243858 -0.3368831 -24 4.2108e+06
-8.258662 0.04162216 -24 4.2108e+06
-8.273549 0.4213347 -24 4.2108e+06
-8.288449 0.8022622 -24 4.2108e+06
-8.303432 1.184412 -24 4.2108e+06
-8.318425 1.567786 -24 4.2108e+06
-8.333504 1.952397 -24 4.2108e+06
-8.348597 2.33824 -24 4.2108e+06
-8.363772 2.725335 -24 4.2108e+06
-8.378962 3.113673 -24 4.2108e+06
-8.394236 3.503276 -24 4.2108e+06
-8.409523 3.894132 -24 4.2108e+06
-8.424896 4.286269 -24 4.2108e+06
-8.440283 4.67967 -24 4.2108e+06
-8.455758 5.074364 -24 4.2108e+06
-8.471245 5.47033 -24 4.2108e+06
-8.48682 5.867608 -24 4.2108e+06
-8.502409 6.266166 -24 4.2108e+06
-8.518086 6.666053 -24 4.2108e+06
-7.507507 -2.953028 -24 4.2108e+06
-7.52102 -2.582835 -24 4.2108e+06
-7.534543 -2.211461 -24 4.2108e+06
-7.548141 -1.838922 -24 4.2108e+06
-7.56175 -1.465194 -24 4.2108e+06
-7.575437 -1.090288 -24 4.2108e+06
-7.589131 -0.7141817 -24 4.2108e+06
-7.602903 -0.3368831 -24 4.2108e+06
-7.616687 0.04162204 -24 4.2108e+06
-7.630547 0.4213347 -24 4.2108e+06
-7.644419 0.8022622 -24 4.2108e+06
-7.658368 1.184412 -24 4.2108e+06
-7.672328 1.567786 -24 4.2108e+06
-7.686367 1.952397 -24 4.2108e+06
-7.700418 2.338241 -24 4.2108e+06
-7.714547 2.725335 -24 4.2108e+06
-7.728689 3.113673 -24 4.2108e+06
-7.742909 3.503276 -24 4.2108e+06
-7.757143 3.894132 -24 4.2108e+06
-7.771457 4.286269 -24 4.2108e+06
-7.785783 4.67967 -24 4.2108e+06
-7.80019 5.074364 -24 4.2108e+06
-7.814608 5.470329 -24 4.2108e+06
-7.829109 5.867608 -24 4.2108e+06
-7.843623 6.266166 -24 4.2108e+06
-7.858219 6.666053 -24 4.2108e+06
-7.223444 -3.115192 -23.64371 4.2108e+06
-7.223444 -2.723218 -23.65699 4.2108e+06
-7.223444 -2.331246 -23.67025 4.2108e+06
-7.223444 -1.939271 -23.68353 4.2108e+06
-7.223444 -1.547299 -23.69678 4.2108e+06
-7.223444 -1.155326 -23.71007 4.2108e+06
-7.223444 -0.7633522 -23.72332 4.2108e+06
-7.223444 -0.3713782 -23.73661 4.2108e+06
-7.223444 0.02059495 -23.74986 4.2108e+06
-7.223444 0.4125689 -23.76315 4.2108e+06
-7.223444 0.8045415 -23.7764 4.2108e+06
-7.223444 1.196515 -23.78968 4.2108e+06
-7.223444 1.588488 -23.80294 4.2108e+06
-7.223444 1.980462 -23.81622 4.2108e+06
-7.223444 2.372435 -23.82948 4.2108e+06
-7.223444 2.764408 -23.84276 4.2108e+06
-7.223444 3.156382 -23.85601 4.2108e+06
-7.223444 3.548354 -23.8693 4.2108e+06
-7.223444 3.940328 -23.88255 4.2108e+06
-7.223444 4.332301 -23.89584 4.2108e+06
-7.223444 4.724277 -23.90909 4.2108e+06
-7.223444 5.116249 -23.92237 4.2108e+06
-7.223444 5.508223 -23.93563 4.2108e+06
-7.223444 5.900196 -23.94891 4.2108e+06
-7.223444 6.292169 -23.96217 4.2108e+06
-7.223444 6.684143 -23.97545 4.2108e+06
-7.223444 -3.022628 -22.92543 4.2108e+06
-7.223444 -2.596571 -22.93983 4.2108e+06
-7.223444 -2.170512 -22.95427 4.2108e+06
-7.223444 -1.744455 -22.96868 4.2108e+06
-7.223444 -1.318398 -22.98312 4.2108e+06
-7.223444 -0.892339 -22.99753 4.2108e+06
-7.223444 -0.4662805 -23.01196 4.2108e+06
-7.223444 -0.04022288 -23.02637 4.2108e+06
-7.223444 0.3858359 -23.04081 4.2108e+06
-7.223444 0.8118929 -23.05522 4.2108e+06
-7.223444 1.237952 -23.06966 4.2108e+06
-7.223444 1.664009 -23.08406 4.2108e+06
-7.223444 2.090067 -23.0985 4.2108e+06
-7.223444 2.516125 -23.11291 4.2108e+06
-7.223444 2.942183 -23.12735 4.2108e+06
-7.223444 3.368241 -23.14175 4.2108e+06
-7.223444 3.794298 -23.15619 4.2108e+06
-7.223444 4.220357 -23.1706 4.2108e+06
-7.223444 4.646414 -23.18504 4.2108e+06
-7.223444 5.072475 -23.19944 4.2108e+06
-7.223444 5.498531 -23.21388 4.2108e+06
-7.223444 5.92459 -23.22829 4.2108e+06
-7.223444 6.350648 -23.24273 4.2108e+06
-7.223444 6.776705 -23.25714 4.2108e+06
-7.223444 -2.912435 -22.07029 4.2108e+06
-7.223444 -2.445799 -22.08611 4.2108e+06
-7.223444 -1.979165 -22.10189 4.2108e+06
-7.223444 -1.512531 -22.1177 4.2108e+06
-7.223444 -1.045895 -22.13348 4.2108e+06
-7.223444 -0.5792596 -22.1493 4.2108e+06
-7.223444 -0.1126251 -22.16507 4.2108e+06
-7.223444 0.3540106 -22.18089 4.2108e+06
-7.223444 0.8206446 -22.19666 4.2108e+06
-7.223444 1.28728 -22.21248 4.2108e+06
-7.223444 1.753914 -22.22826 4.2108e+06
-7.223444 2.22055 -22.24407 4.2108e+06
-7.223444 2.687184 -22.25985 4.2108e+06
-7.223444 3.153819 -22.27567 4.2108e+06
-7.223444 3.620455 -22.29144 4.2108e+06
-7.223444 4.087089 -22.30726 4.2108e+06
-7.223444 4.553724 -22.32304 4.2108e+06
-7.223444 5.020359 -22.33885 4.2108e+06
-7.223444 5.486997 -22.35463 4.2108e+06
-7.223444 5.953629 -22.37045 4.2108e+06
-7.223444 6.420266 -22.38622 4.2108e+06
-7.223444 -2.779042 -21.03518 4.2108e+06
-7.223444 -2.263288 -21.05261 4.2108e+06
-7.223444 -1.747534 -21.07009 4.2108e+06
-7.223444 -1.231779 -21.08753 4.2108e+06
-7.223444 -0.7160237 -21.10501 4.2108e+06
-7.223444 -0.2002699 -21.12245 4.2108e+06
-7.223444 0.3154855 -21.13993 4.2108e+06
-7.223444 0.8312388 -21.15737 4.2108e+06
-7.223444 1.346994 -21.17485 4.2108e+06
-7.223444 1.862747 -21.19229 4.2108e+06
-7.223444 2.378503 -21.20977 4.2108e+06
-7.223444 2.894257 -21.2272 4.2108e+06
-7.223444 3.410011 -21.24468 4.2108e+06
-7.223444 3.925766 -21.26212 4.2108e+06
-7.223444 4.441519 -21.2796 4.2108e+06
-7.223444 4.957274 -21.29704 4.2108e+06
-7.223444 5.473027 -21.31452 4.2108e+06
-7.223444 5.988786 -21.33196 4.2108e+06
-7.223444 6.504538 -21.34944 4.2108e+06
-7.223444 -3.190694 -19.73696 4.2108e+06
-7.223444 -2.614263 -19.75645 4.2108e+06
-7.223444 -2.037832 -19.77599 4.2108e+06
-7.223444 -1.4614 -19.79548 4.2108e+06
-7.223444 -0.8849678 -19.81501 4.2108e+06
-7.223444 -0.3085368 -19.8345 4.2108e+06
-7.223444 0.2678955 -19.85404 4.2108e+06
-7.223444 0.8443257 -19.87353 4.2108e+06
-7.223444 1.420758 -19.89306 4.2108e+06
-7.223444 1.997188 -19.91255 4.2108e+06
-7.223444 2.573621 -19.93209 4.2108e+06
-7.223444 3.150052 -19.95158 4.2108e+06
-7.223444 3.726483 -19.97112 4.2108e+06
-7.223444 4.302915 -19.9906 4.2108e+06
-7.223444 4.879344 -20.01014 4.2108e+06
-7.223444 5.455777 -20.02963 4.2108e+06
-7.223444 6.032207 -20.04917 4.2108e+06
-7.223444 6.608644 -20.06866 4.2108e+06
-7.223444 -3.05883 -18.11464 4.2108e+06
-7.223444 -2.405543 -18.13678 4.2108e+06
-7.223444 -1.752253 -18.15887 4.2108e+06
-7.223444 -1.098963 -18.18102 4.2108e+06
-7.223444 -0.4456751 -18.2031 4.2108e+06
-7.223444 0.2076149 -18.22524 4.2108e+06
-7.223444 0.8609024 -18.24733 4.2108e+06
-7.223444 1.514192 -18.26947 4.2108e+06
-7.223444 2.16748 -18.29156 4.2108e+06
-7.223444 2.82077 -18.3137 4.2108e+06
-7.223444 3.474058 -18.33579 4.2108e+06
-7.223444 4.127346 -18.35793 4.2108e+06
-7.223444 4.780637 -18.38002 4.2108e+06
-7.223444 5.433923 -18.40216 4.2108e+06
-7.223444 6.087213 -18.42425 4.2108e+06
-7.223444 6.740501 -18.44639 4.2108e+06
