VERSION 0.7
FIELDS x y z rgb
SIZE 4 4 4 4
TYPE F F F F
COUNT 1 1 1 1
WIDTH 457
HEIGHT 1
VIEWPOINT 0 0 0 1 0 0 0
POINTS 457
DATA ascii 
-15.74807 -2.953028 -24 4.2108e+06
-15.77459 -2.582835 -24 4.2108e+06
-15.80114 -2.211462 -24 4.2108e+06
-15.82783 -1.838922 -24 4.2108e+06
-15.85455 -1.465194 -24 4.2108e+06
-15.11418 -2.953028 -24 4.2108e+06
-15.1397 -2.582835 -24 4.2108e+06
-15.16525 -2.211461 -24 4.2108e+06
-15.19093 -1.838923 -24 4.2108e+06
-15.21664 -1.465194 -24 4.2108e+06
-15.24249 -1.090288 -24 4.2108e+06
-15.26836 -0.7141817 -24 4.2108e+06
-15.29437 -0.3368831 -24 4.2108e+06
-15.32041 0.04162204 -24 4.2108e+06
-15.34659 0.4213347 -24 4.2108e+06
-15.37279 0.8022622 -24 4.2108e+06
-15.39914 1.184412 -24 4.2108e+06
-15.42551 1.567786 -24 4.2108e+06
-15.45203 1.952397 -24 4.2108e+06
-15.47856 2.33824 -24 4.2108e+06
-15.50525 2.725335 -24 4.2108e+06
-15.53197 3.113673 -24 4.2108e+06
-15.55883 3.503276 -24 4.2108e+06
-15.58571 3.894132 -24 4.2108e+06
-15.61275 4.286269 -24 4.2108e+06
-15.63981 4.67967 -24 4.2108e+06
-15.66702 5.074364 -24 4.2108e+06
-15.69426 5.470329 -24 4.2108e+06
-15.72165 5.867607 -24 4.2108e+06
-15.74906 6.266166 -24 4.2108e+06
-15.77664 6.666053 -24 4.2108e+06
-14.48029 -2.953028 -24 4.2108e+06
-14.50481 -2.582835 -24 4.2108e+06
-14.52936 -2.211461 -24 4.2108e+06
-14.55403 -1.838923 -24 4.2108e+06
-14.57873 -1.465194 -24 4.2108e+06
-14.60357 -1.090288 -24 4.2108e+06
-14.62842 -0.7141817 -24 4.2108e+06
-14.65342 -0.3368831 -24 4.2108e+06
-14.67843 0.04162204 -24 4.2108e+06
-14.70358 0.4213347 -24 4.2108e+06
-14.72876 0.8022622 -24 4.2108e+06
-14.75407 1.184412 -24 4.2108e+06
-14.77941 1.567786 -24 4.2108e+06
-14.80489 1.952397 -24 4.2108e+06
-14.83039 2.33824 -24 4.2108e+06
-14.85603 2.725335 -24 4.2108e+06
-14.88169 3.113673 -24 4.2108e+06
-14.9075 3.503276 -24 4.2108e+06
-14.93333 3.894132 -24 4.2108e+06
-14.95931 4.286269 -24 4.2108e+06
-14.98531 4.679669 -24 4.2108e+06
-15.01145 5.074364 -24 4.2108e+06
-15.03762 5.47033 -24 4.2108e+06
-15.06394 5.867608 -24 4.2108e+06
-15.09028 6.266167 -24 4.2108e+06
-15.11677 6.666052 -24 4.2108e+06
-13.8464 -2.953028 -24 4.2108e+06
-13.86992 -2.582835 -24 4.2108e+06
-13.89346 -2.211461 -24 4.2108e+06
-13.91713 -1.838922 -24 4.2108e+06
-13.94082 -1.465194 -24 4.2108e+06
-13.96465 -1.090288 -24 4.2108e+06
-13.98849 -0.7141817 -24 4.2108e+06
-14.01246 -0.3368828 -24 4.2108e+06
-14.03646 0.04162204 -24 4.2108e+06
-14.06058 0.4213347 -24 4.2108e+06
-14.08473 0.8022622 -24 4.2108e+06
-14.10901 1.184412 -24 4.2108e+06
-14.13331 1.567786 -24 4.2108e+06
-14.15775 1.952397 -24 4.2108e+06
-14.18221 2.33824 -24 4.2108e+06
-14.2068 2.725335 -24 4.2108e+06
-14.23142 3.113673 -24 4.2108e+06
-14.25617 3.503276 -24 4.2108e+06
-14.28095 3.894132 -24 4.2108e+06
-14.30587 4.286269 -24 4.2108e+06
-14.3308 4.67967 -24 4.2108e+06
-14.35588 5.074364 -24 4.2108e+06
-14.38098 5.47033 -24 4.2108e+06
-14.40623 5.867608 -24 4.2108e+06
-14.43149 6.266166 -24 4.2108e+06
-14.4569 6.666054 -24 4.2108e+06
-13.21251 -2.953028 -24 4.2108e+06
-13.23503 -2.582835 -24 4.2108e+06
-13.25757 -2.211461 -24 4.2108e+06
-13.28024 -1.838922 -24 4.2108e+06
-13.30292 -1.465194 -24 4.2108e+06
-13.32572 -1.090288 -24 4.2108e+06
-13.34855 -0.7141817 -24 4.2108e+06
-13.37151 -0.3368831 -24 4.2108e+06
-13.39448 0.04162204 -24 4.2108e+06
-13.41758 0.4213347 -24 4.2108e+06
-13.4407 0.8022622 -24 4.2108e+06
-13.46394 1.184412 -24 4.2108e+06
-13.48721 1.567786 -24 4.2108e+06
-13.51061 1.952397 -24 4.2108e+06
-13.53403 2.33824 -24 4.2108e+06
-13.55758 2.725335 -24 4.2108e+06
-13.58115 3.113673 -24 4.2108e+06
-13.60485 3.503276 -24 4.2108e+06
-13.62857 3.894132 -24 4.2108e+06
-13.65242 4.286269 -24 4.2108e+06
-13.6763 4.67967 -24 4.2108e+06
-13.70031 5.074364 -24 4.2108e+06
-13.72435 5.470329 -24 4.2108e+06
-13.74851 5.867608 -24 4.2108e+06
-13.7727 6.266166 -24 4.2108e+06
-13.79703 6.666053 -24 4.2108e+06
-12.57862 -2.953028 -24 4.2108e+06
-12.60014 -2.582835 -24 4.2108e+06
-12.62168 -2.211461 -24 4.2108e+06
-12.64334 -1.838922 -24 4.2108e+06
-12.66501 -1.465194 -24 4.2108e+06
-12.6868 -1.090287 -24 4.2108e+06
-12.70862 -0.7141819 -24 4.2108e+06
-12.73055 -0.3368833 -24 4.2108e+06
-12.7525 0.04162204 -24 4.2108e+06
-12.77457 0.4213347 -24 4.2108e+06
-12.79666 0.8022622 -24 4.2108e+06
-12.81888 1.184412 -24 4.2108e+06
-12.84111 1.567786 -24 4.2108e+06
-12.86347 1.952397 -24 4.2108e+06
-12.88585 2.33824 -24 4.2108e+06
-12.90835 2.725335 -24 4.2108e+06
-12.93087 3.113673 -24 4.2108e+06
-12.95352 3.503276 -24 4.2108e+06
-12.97619 3.894132 -24 4.2108e+06
-12.99898 4.286269 -24 4.2108e+06
-13.0218 4.67967 -24 4.2108e+06
-13.04474 5.074364 -24 4.2108e+06
-13.06771 5.47033 -24 4.2108e+06
-13.0908 5.867608 -24 4.2108e+06
-13.11392 6.266166 -24 4.2108e+06
-13.13716 6.666053 -24 4.2108e+06
-11.94473 -2.953028 -24 4.2108e+06
-11.96525 -2.582835 -24 4.2108e+06
-11.98579 -2.211461 -24 4.2108e+06
-12.00644 -1.838922 -24 4.2108e+06
-12.0271 -1.465194 -24 4.2108e+06
-12.04788 -1.090288 -24 4.2108e+06
-12.06868 -0.7141817 -24 4.2108e+06
-12.08959 -0.3368828 -24 4.2108e+06
-12.11052 0.04162216 -24 4.2108e+06
-12.13157 0.4213347 -24 4.2108e+06
-12.15264 0.8022622 -24 4.2108e+06
-12.17382 1.184412 -24 4.2108e+06
-12.19502 1.567786 -24 4.2108e+06
-12.21633 1.952397 -24 4.2108e+06
-12.23767 2.33824 -24 4.2108e+06
-12.25912 2.725335 -24 4.2108e+06
-12.2806 3.113673 -24 4.2108e+06
-12.3022 3.503276 -24 4.2108e+06
-12.32381 3.894132 -24 4.2108e+06
-12.34554 4.286269 -24 4.2108e+06
-12.3673 4.67967 -24 4.2108e+06
-12.38918 5.074364 -24 4.2108e+06
-12.41107 5.470329 -24 4.2108e+06
-12.43309 5.867607 -24 4.2108e+06
-12.45513 6.266167 -24 4.2108e+06
-12.47729 6.666052 -24 4.2108e+06
-11.31084 -2.953028 -24 4.2108e+06
-11.33036 -2.582835 -24 4.2108e+06
-11.34989 -2.211461 -24 4.2108e+06
-11.36954 -1.838922 -24 4.2108e+06
-11.3892 -1.465194 -24 4.2108e+06
-11.40896 -1.090288 -24 4.2108e+06
-11.42875 -0.7141817 -24 4.2108e+06
-11.44864 -0.3368828 -24 4.2108e+06
-11.46855 0.04162216 -24 4.2108e+06
-11.48857 0.4213347 -24 4.2108e+06
-11.5086 0.8022622 -24 4.2108e+06
-11.52875 1.184412 -24 4.2108e+06
-11.54892 1.567786 -24 4.2108e+06
-11.5692 1.952397 -24 4.2108e+06
-11.58949 2.33824 -24 4.2108e+06
-11.6099 2.725335 -24 4.2108e+06
-11.63033 3.113673 -24 4.2108e+06
-11.65087 3.503276 -24 4.2108e+06
-11.67143 3.894132 -24 4.2108e+06
-11.6921 4.286269 -24 4.2108e+06
-11.7128 4.67967 -24 4.2108e+06
-11.73361 5.074364 -24 4.2108e+06
-11.75443 5.47033 -24 4.2108e+06
-11.77538 5.867608 -24 4.2108e+06
-11.79634 6.266166 -24 4.2108e+06
-11.81743 6.666053 -24 4.2108e+06
-10.67695 -2.953028 -24 4.2108e+06
-10.69547 -2.582835 -24 4.2108e+06
-10.714 -2.211461 -24 4.2108e+06
-10.73264 -1.838922 -24 4.2108e+06
-10.75129 -1.465194 -24 4.2108e+06
-10.77004 -1.090288 -24 4.2108e+06
-10.78881 -0.7141817 -24 4.2108e+06
-10.80768 -0.3368828 -24 4.2108e+06
-10.82657 0.04162216 -24 4.2108e+06
-10.84556 0.4213347 -24 4.2108e+06
-10.86457 0.8022622 -24 4.2108e+06
-10.88369 1.184412 -24 4.2108e+06
-10.90282 1.567786 -24 4.2108e+06
-10.92206 1.952397 -24 4.2108e+06
-10.94131 2.33824 -24 4.2108e+06
-10.96067 2.725335 -24 4.2108e+06
-10.98005 3.113673 -24 4.2108e+06
-10.99954 3.503276 -24 4.2108e+06
-11.01905 3.894132 -24 4.2108e+06
-11.03866 4.286269 -24 4.2108e+06
-11.05829 4.67967 -24 4.2108e+06
-11.07804 5.074364 -24 4.2108e+06
-11.09779 5.470329 -24 4.2108e+06
-11.11767 5.867608 -24 4.2108e+06
-11.13756 6.266167 -24 4.2108e+06
-11.15756 6.666053 -24 4.2108e+06
-10.04306 -2.953028 -24 4.2108e+06
-10.06058 -2.582835 -24 4.2108e+06
-10.07811 -2.211461 -24 4.2108e+06
-10.09574 -1.838922 -24 4.2108e+06
-10.11338 -1.465194 -24 4.2108e+06
-10.13112 -1.090288 -24 4.2108e+06
-10.14887 -0.7141817 -24 4.2108e+06
-10.16673 -0.3368831 -24 4.2108e+06
-10.18459 0.04162204 -24 4.2108e+06
-10.20256 0.4213347 -24 4.2108e+06
-10.22054 0.8022622 -24 4.2108e+06
-10.23862 1.184412 -24 4.2108e+06
-10.25672 1.567786 -24 4.2108e+06
-10.27492 1.952397 -24 4.2108e+06
-10.29313 2.33824 -24 4.2108e+06
-10.31145 2.725335 -24 4.2108e+06
-10.32978 3.113673 -24 4.2108e+06
-10.34822 3.503276 -24 4.2108e+06
-10.36667 3.894132 -24 4.2108e+06
-10.38522 4.286269 -24 4.2108e+06
-10.40379 4.679669 -24 4.2108e+06
-10.42247 5.074364 -24 4.2108e+06
-10.44116 5.47033 -24 4.2108e+06
-10.45996 5.867608 -24 4.2108e+06
-10.47877 6.266166 -24 4.2108e+06
-10.49769 6.666053 -24 4.2108e+06
-9.409175 -2.953028 -24 4.2108e+06
-9.425691 -2.582835 -24 4.2108e+06
-9.442219 -2.211461 -24 4.2108e+06
-9.458839 -1.838922 -24 4.2108e+06
-9.475472 -1.465194 -24 4.2108e+06
-9.492198 -1.090288 -24 4.2108e+06
-9.508938 -0.7141817 -24 4.2108e+06
-9.525771 -0.3368831 -24 4.2108e+06
-9.542617 0.04162204 -24 4.2108e+06
-9.559556 0.4213347 -24 4.2108e+06
-9.57651 0.8022622 -24 4.2108e+06
-9.59356 1.184412 -24 4.2108e+06
-9.610622 1.567786 -24 4.2108e+06
-9.627781 1.952397 -24 4.2108e+06
-9.644954 2.33824 -24 4.2108e+06
-9.662224 2.725335 -24 4.2108e+06
-9.679507 3.113673 -24 4.2108e+06
-9.69689 3.503276 -24 4.2108e+06
-9.714285 3.894132 -24 4.2108e+06
-9.731779 4.286269 -24 4.2108e+06
-9.749288 4.679669 -24 4.2108e+06
-9.766897 5.074364 -24 4.2108e+06
-9.784521 5.47033 -24 4.2108e+06
-9.802244 5.867608 -24 4.2108e+06
-9.819983 6.266166 -24 4.2108e+06
-9.837824 6.666053 -24 4.2108e+06
-8.775285 -2.953028 -24 4.2108e+06
-8.7908 -2.582835 -24 4.2108e+06
-8.806326 -2.211461 -24 4.2108e+06
-8.821939 -1.838922 -24 4.2108e+06
-8.837564 -1.465194 -24 4.2108e+06
-8.853277 -1.090288 -24 4.2108e+06
-8.869002 -0.7141817 -24 4.2108e+06
-8.884814 -0.3368828 -24 4.2108e+06
-8.900639 0.04162216 -24 4.2108e+06
-8.916553 0.4213347 -24 4.2108e+06
-8.93248 0.8022622 -24 4.2108e+06
-8.948495 1.184412 -24 4.2108e+06
-8.964524 1.567786 -24 4.2108e+06
-8.980642 1.952397 -24 4.2108e+06
-8.996776 2.33824 -24 4.2108e+06
-9.012998 2.725335 -24 4.2108e+06
-9.029234 3.113673 -24 4.2108e+06
-9.045562 3.503276 -24 4.2108e+06
-9.061904 3.894132 -24 4.2108e+06
-9.078339 4.286269 -24 4.2108e+06
-9.094786 4.67967 -24 4.2108e+06
-9.111327 5.074364 -24 4.2108e+06
-9.127882 5.470329 -24 4.2108e+06
-9.144532 5.867608 -24 4.2108e+06
-9.161197 6.266166 -24 4.2108e+06
-9.177955 6.666052 -24 4.2108e+06
-8.141396 -2.953027 -24 4.2108e+06
-8.15591 -2.582835 -24 4.2108e+06
-8.170435 -2.211461 -24 4.2108e+06
-8.18504 -1.838922 -24 4.2108e+06
-8.199657 -1.465194 -24 4.2108e+06
-8.214355 -1.090288 -24 4.2108e+06
-8.229066 -0.7141817 -24 4.2108e+06
-8.243858 -0.3368831 -24 4.2108e+06
-8.258662 0.04162216 -24 4.2108e+06
-8.273549 0.4213347 -24 4.2108e+06
-8.288449 0.8022622 -24 4.2108e+06
-8.303432 1.184412 -24 4.2108e+06
-8.318425 1.567786 -24 4.2108e+06
-8.333504 1.952397 -24 4.2108e+06
-8.348597 2.33824 -24 4.2108e+06
-8.363772 2.725335 -24 4.2108e+06
-8.378962 3.113673 -24 4.2108e+06
-8.394236 3.503276 -24 4.2108e+06
-8.409523 3.894132 -24 4.2108e+06
-8.424896 4.286269 -24 4.2108e+06
-8.440283 4.67967 -24 4.2108e+06
-8.455758 5.074364 -24 4.2108e+06
-8.471245 5.47033 -24 4.2108e+06
-8.48682 5.867608 -24 4.2108e+06
-8.502409 6.266166 -24 4.2108e+06
-8.518086 6.666053 -24 4.2108e+06
-7.86034 -3.10447 -23.66727 4.2108e+06
-7.86034 -2.713592 -23.68052 4.2108e+06
-7.86034 -2.322715 -23.69373 4.2108e+06
-7.86034 -1.931837 -23.70698 4.2108e+06
-7.86034 -1.54096 -23.72019 4.2108e+06
-7.86034 -1.150083 -23.73344 4.2108e+06
-7.86034 -0.7592051 -23.74666 4.2108e+06
-7.86034 -0.3683269 -23.75991 4.2108e+06
-7.86034 0.02255034 -23.77312 4.2108e+06
-7.86034 0.4134284 -23.78637 4.2108e+06
-7.86034 0.8043051 -23.79959 4.2108e+06
-7.86034 1.195183 -23.81283 4.2108e+06
-7.86034 1.58606 -23.82605 4.2108e+06
-7.86034 1.976938 -23.8393 4.2108e+06
-7.86034 2.367815 -23.85251 4.2108e+06
-7.86034 2.758693 -23.86576 4.2108e+06
-7.86034 3.149571 -23.87898 4.2108e+06
-7.86034 3.540447 -23.89222 4.2108e+06
-7.86034 3.931325 -23.90544 4.2108e+06
-7.86034 4.322202 -23.91869 4.2108e+06
-7.86034 4.713082 -23.9319 4.2108e+06
-7.86034 5.103958 -23.94515 4.2108e+06
-7.86034 5.494837 -23.95837 4.2108e+06
-7.86034 5.885714 -23.97161 4.2108e+06
-7.86034 6.276591 -23.98483 4.2108e+06
-7.86034 6.667468 -23.99808 4.2108e+06
-7.86034 -2.98828 -23.00935 4.2108e+06
-7.86034 -2.566133 -23.02363 4.2108e+06
-7.86034 -2.143984 -23.03794 4.2108e+06
-7.86034 -1.721837 -23.05221 4.2108e+06
-7.86034 -1.29969 -23.06652 4.2108e+06
-7.86034 -0.8775415 -23.08079 4.2108e+06
-7.86034 -0.4553931 -23.0951 4.2108e+06
-7.86034 -0.0332458 -23.10937 4.2108e+06
-7.86034 0.3889027 -23.12368 4.2108e+06
-7.86034 0.8110496 -23.13795 4.2108e+06
-7.86034 1.233198 -23.15226 4.2108e+06
-7.86034 1.655345 -23.16653 4.2108e+06
-7.86034 2.077493 -23.18084 4.2108e+06
-7.86034 2.499641 -23.19511 4.2108e+06
-7.86034 2.921788 -23.20942 4.2108e+06
-7.86034 3.343936 -23.22369 4.2108e+06
-7.86034 3.766083 -23.238 4.2108e+06
-7.86034 4.188231 -23.25227 4.2108e+06
-7.86034 4.610378 -23.26658 4.2108e+06
-7.86034 5.03253 -23.28085 4.2108e+06
-7.86034 5.454676 -23.29516 4.2108e+06
-7.86034 5.876824 -23.30944 4.2108e+06
-7.86034 6.298971 -23.32374 4.2108e+06
-7.86034 6.721119 -23.33802 4.2108e+06
-7.86034 -2.851883 -22.23699 4.2108e+06
-7.86034 -2.393026 -22.25254 4.2108e+06
-7.86034 -1.934171 -22.26805 4.2108e+06
-7.86034 -1.475315 -22.2836 4.2108e+06
-7.86034 -1.016458 -22.29912 4.2108e+06
-7.86034 -0.5576012 -22.31467 4.2108e+06
-7.86034 -0.09874535 -22.33018 4.2108e+06
-7.86034 0.3601116 -22.34574 4.2108e+06
-7.86034 0.8189669 -22.36125 4.2108e+06
-7.86034 1.277824 -22.3768 4.2108e+06
-7.86034 1.736679 -22.39232 4.2108e+06
-7.86034 2.195536 -22.40787 4.2108e+06
-7.86034 2.654392 -22.42338 4.2108e+06
-7.86034 3.113248 -22.43893 4.2108e+06
-7.86034 3.572105 -22.45445 4.2108e+06
-7.86034 4.03096 -22.47 4.2108e+06
-7.86034 4.489817 -22.48552 4.2108e+06
-7.86034 4.948672 -22.50107 4.2108e+06
-7.86034 5.407532 -22.51658 4.2108e+06
-7.86034 5.866386 -22.53213 4.2108e+06
-7.86034 6.325244 -22.54765 4.2108e+06
-7.86034 6.7841 -22.5632 4.2108e+06
-7.86034 -3.192063 -21.30051 4.2108e+06
-7.86034 -2.689505 -21.31754 4.2108e+06
-7.86034 -2.186949 -21.33453 4.2108e+06
-7.86034 -1.684393 -21.35157 4.2108e+06
-7.86034 -1.181835 -21.36856 4.2108e+06
-7.86034 -0.6792777 -21.38559 4.2108e+06
-7.86034 -0.1767212 -21.40258 4.2108e+06
-7.86034 0.3258364 -21.41962 4.2108e+06
-7.86034 0.8283923 -21.43661 4.2108e+06
-7.86034 1.33095 -21.45364 4.2108e+06
-7.86034 1.833506 -21.47063 4.2108e+06
-7.86034 2.336063 -21.48767 4.2108e+06
-7.86034 2.83862 -21.50466 4.2108e+06
-7.86034 3.341177 -21.52169 4.2108e+06
-7.86034 3.843734 -21.53868 4.2108e+06
-7.86034 4.34629 -21.55571 4.2108e+06
-7.86034 4.848847 -21.57271 4.2108e+06
-7.86034 5.351403 -21.58974 4.2108e+06
-7.86034 5.853964 -21.60673 4.2108e+06
-7.86034 6.356519 -21.62376 4.2108e+06
-7.86034 -3.0484 -20.1857 4.2108e+06
-7.86034 -2.492943 -20.20448 4.2108e+06
-7.86034 -1.937487 -20.22331 4.2108e+06
-7.86034 -1.382029 -20.24209 4.2108e+06
-7.86034 -0.8265698 -20.26092 4.2108e+06
-7.86034 -0.2711129 -20.2797 4.2108e+06
-7.86034 0.2843456 -20.29852 4.2108e+06
-7.86034 0.839802 -20.3173 4.2108e+06
-7.86034 1.395261 -20.33613 4.2108e+06
-7.86034 1.950717 -20.35491 4.2108e+06
-7.86034 2.506176 -20.37374 4.2108e+06
-7.86034 3.061633 -20.39252 4.2108e+06
-7.86034 3.61709 -20.41134 4.2108e+06
-7.86034 4.172548 -20.43012 4.2108e+06
-7.86034 4.728004 -20.44895 4.2108e+06
-7.86034 5.283463 -20.46773 4.2108e+06
-7.86034 5.83892 -20.48655 4.2108e+06
-7.86034 6.394381 -20.50534 4.2108e+06
-7.86034 -2.870937 -18.80854 4.2108e+06
-7.86034 -2.250132 -18.82958 4.2108e+06
-7.86034 -1.629326 -18.85057 4.2108e+06
-7.86034 -1.008519 -18.87161 4.2108e+06
-7.86034 -0.3877144 -18.8926 4.2108e+06
-7.86034 0.2330922 -18.91364 4.2108e+06
-7.86034 0.8538964 -18.93463 4.2108e+06
-7.86034 1.474703 -18.95567 4.2108e+06
-7.86034 2.095507 -18.97666 4.2108e+06
-7.86034 2.716314 -18.9977 4.2108e+06
-7.86034 3.337119 -19.01869 4.2108e+06
-7.86034 3.957924 -19.03973 4.2108e+06
-7.86034 4.57873 -19.06073 4.2108e+06
-7.86034 5.199533 -19.08176 4.2108e+06
-7.86034 5.82034 -19.10275 4.2108e+06
-7.86034 6.441145 -19.1238 4.2108e+06
-7.86034 -2.646149 -17.06419 4.2108e+06
-7.86034 -1.942569 -17.08798 4.2108e+06
-7.86034 -1.238988 -17.11183 4.2108e+06
-7.86034 -0.5354097 -17.13562 4.2108e+06
-7.86034 0.1681712 -17.15946 4.2108e+06
-7.86034 0.8717492 -17.18325 4.2108e+06
-7.86034 1.57533 -17.2071 4.2108e+06
-7.86034 2.278908 -17.23089 4.2108e+06
-7.86034 2.982489 -17.25473 4.2108e+06
-7.86034 3.686068 -17.27852 4.2108e+06
-7.86034 4.389647 -17.30237 4.2108e+06
-7.86034 5.093227 -17.32616 4.2108e+06
-7.86034 5.796804 -17.35 4.2108e+06
-7.86034 6.500385 -17.37379 4.2108e+06
