VERSION 0.7
FIELDS x y z rgb
SIZE 4 4 4 4
TYPE F F F F
COUNT 1 1 1 1
WIDTH 440
HEIGHT 1
VIEWPOINT 0 0 0 1 0 0 0
POINTS 440
DATA ascii 
-15.11418 -2.953028 -24 4.2108e+06
-15.1397 -2.582835 -24 4.2108e+06
-15.16525 -2.211461 -24 4.2108e+06
-15.19093 -1.838923 -24 4.2108e+06
-14.48029 -2.953028 -24 4.2108e+06
-14.50481 -2.582835 -24 4.2108e+06
-14.52936 -2.211461 -24 4.2108e+06
-14.55403 -1.838923 -24 4.2108e+06
-14.57873 -1.465194 -24 4.2108e+06
-14.60357 -1.090288 -24 4.2108e+06
-14.62842 -0.7141817 -24 4.2108e+06
-14.65342 -0.3368831 -24 4.2108e+06
-14.67843 0.04162204 -24 4.2108e+06
-14.70358 0.4213347 -24 4.2108e+06
-14.72876 0.8022622 -24 4.2108e+06
-14.75407 1.184412 -24 4.2108e+06
-14.77941 1.567786 -24 4.2108e+06
-14.80489 1.952397 -24 4.2108e+06
-14.83039 2.33824 -24 4.2108e+06
-14.85603 2.725335 -24 4.2108e+06
-14.88169 3.113673 -24 4.2108e+06
-14.9075 3.503276 -24 4.2108e+06
-14.93333 3.894132 -24 4.2108e+06
-14.95931 4.286269 -24 4.2108e+06
-14.98531 4.679669 -24 4.2108e+06
-15.01145 5.074364 -24 4.2108e+06
-15.03762 5.47033 -24 4.2108e+06
-15.06394 5.867608 -24 4.2108e+06
-15.09028 6.266167 -24 4.2108e+06
-15.11677 6.666052 -24 4.2108e+06
-13.8464 -2.953028 -24 4.2108e+06
-13.86992 -2.582835 -24 4.2108e+06
-13.89346 -2.211461 -24 4.2108e+06
-13.91713 -1.838922 -24 4.2108e+06
-13.94082 -1.465194 -24 4.2108e+06
-13.96465 -1.090288 -24 4.2108e+06
-13.98849 -0.7141817 -24 4.2108e+06
-14.01246 -0.3368828 -24 4.2108e+06
-14.03646 0.04162204 -24 4.2108e+06
-14.06058 0.4213347 -24 4.2108e+06
-14.08473 0.8022622 -24 4.2108e+06
-14.10901 1.184412 -24 4.2108e+06
-14.13331 1.567786 -24 4.2108e+06
-14.15775 1.952397 -24 4.2108e+06
-14.18221 2.33824 -24 4.2108e+06
-14.2068 2.725335 -24 4.2108e+06
-14.23142 3.113673 -24 4.2108e+06
-14.25617 3.503276 -24 4.2108e+06
-14.28095 3.894132 -24 4.2108e+06
-14.30587 4.286269 -24 4.2108e+06
-14.3308 4.67967 -24 4.2108e+06
-14.35588 5.074364 -24 4.2108e+06
-14.38098 5.47033 -24 4.2108e+06
-14.40623 5.867608 -24 4.2108e+06
-14.43149 6.266166 -24 4.2108e+06
-14.4569 6.666054 -24 4.2108e+06
-13.21251 -2.953028 -24 4.2108e+06
-13.23503 -2.582835 -24 4.2108e+06
-13.25757 -2.211461 -24 4.2108e+06
-13.28024 -1.838922 -24 4.2108e+06
-13.30292 -1.465194 -24 4.2108e+06
-13.32572 -1.090288 -24 4.2108e+06
-13.34855 -0.7141817 -24 4.2108e+06
-13.37151 -0.3368831 -24 4.2108e+06
-13.39448 0.04162204 -24 4.2108e+06
-13.41758 0.4213347 -24 4.2108e+06
-13.4407 0.8022622 -24 4.2108e+06
-13.46394 1.184412 -24 4.2108e+06
-13.48721 1.567786 -24 4.2108e+06
-13.51061 1.952397 -24 4.2108e+06
-13.53403 2.33824 -24 4.2108e+06
-13.55758 2.725335 -24 4.2108e+06
-13.58115 3.113673 -24 4.2108e+06
-13.60485 3.503276 -24 4.2108e+06
-13.62857 3.894132 -24 4.2108e+06
-13.65242 4.286269 -24 4.2108e+06
-13.6763 4.67967 -24 4.2108e+06
-13.70031 5.074364 -24 4.2108e+06
-13.72435 5.470329 -24 4.2108e+06
-13.74851 5.867608 -24 4.2108e+06
-13.7727 6.266166 -24 4.2108e+06
-13.79703 6.666053 -24 4.2108e+06
-12.57862 -2.953028 -24 4.2108e+06
-12.60014 -2.582835 -24 4.2108e+06
-12.62168 -2.211461 -24 4.2108e+06
-12.64334 -1.838922 -24 4.2108e+06
-12.66501 -1.465194 -24 4.2108e+06
-12.6868 -1.090287 -24 4.2108e+06
-12.70862 -0.7141819 -24 4.2108e+06
-12.73055 -0.3368833 -24 4.2108e+06
-12.7525 0.04162204 -24 4.2108e+06
-12.77457 0.4213347 -24 4.2108e+06
-12.79666 0.8022622 -24 4.2108e+06
-12.81888 1.184412 -24 4.2108e+06
-12.84111 1.567786 -24 4.2108e+06
-12.86347 1.952397 -24 4.2108e+06
-12.88585 2.33824 -24 4.2108e+06
-12.90835 2.725335 -24 4.2108e+06
-12.93087 3.113673 -24 4.2108e+06
-12.95352 3.503276 -24 4.2108e+06
-12.97619 3.894132 -24 4.2108e+06
-12.99898 4.286269 -24 4.2108e+06
-13.0218 4.67967 -24 4.2108e+06
-13.04474 5.074364 -24 4.2108e+06
-13.06771 5.47033 -24 4.2108e+06
-13.0908 5.867608 -24 4.2108e+06
-13.11392 6.266166 -24 4.2108e+06
-13.13716 6.666053 -24 4.2108e+06
-11.94473 -2.953028 -24 4.2108e+06
-11.96525 -2.582835 -24 4.2108e+06
-11.98579 -2.211461 -24 4.2108e+06
-12.00644 -1.838922 -24 4.2108e+06
-12.0271 -1.465194 -24 4.2108e+06
-12.04788 -1.090288 -24 4.2108e+06
-12.06868 -0.7141817 -24 4.2108e+06
-12.08959 -0.3368828 -24 4.2108e+06
-12.11052 0.04162216 -24 4.2108e+06
-12.13157 0.4213347 -24 4.2108e+06
-12.15264 0.8022622 -24 4.2108e+06
-12.17382 1.184412 -24 4.2108e+06
-12.19502 1.567786 -24 4.2108e+06
-12.21633 1.952397 -24 4.2108e+06
-12.23767 2.33824 -24 4.2108e+06
-12.25912 2.725335 -24 4.2108e+06
-12.2806 3.113673 -24 4.2108e+06
-12.3022 3.503276 -24 4.2108e+06
-12.32381 3.894132 -24 4.2108e+06
-12.34554 4.286269 -24 4.2108e+06
-12.3673 4.67967 -24 4.2108e+06
-12.38918 5.074364 -24 4.2108e+06
-12.41107 5.470329 -24 4.2108e+06
-12.43309 5.867607 -24 4.2108e+06
-12.45513 6.266167 -24 4.2108e+06
-12.47729 6.666052 -24 4.2108e+06
-11.31084 -2.953028 -24 4.2108e+06
-11.33036 -2.582835 -24 4.2108e+06
-11.34989 -2.211461 -24 4.2108e+06
-11.36954 -1.838922 -24 4.2108e+06
-11.3892 -1.465194 -24 4.2108e+06
-11.40896 -1.090288 -24 4.2108e+06
-11.42875 -0.7141817 -24 4.2108e+06
-11.44864 -0.3368828 -24 4.2108e+06
-11.46855 0.04162216 -24 4.2108e+06
-11.48857 0.4213347 -24 4.2108e+06
-11.5086 0.8022622 -24 4.2108e+06
-11.52875 1.184412 -24 4.2108e+06
-11.54892 1.567786 -24 4.2108e+06
-11.5692 1.952397 -24 4.2108e+06
-11.58949 2.33824 -24 4.2108e+06
-11.6099 2.725335 -24 4.2108e+06
-11.63033 3.113673 -24 4.2108e+06
-11.65087 3.503276 -24 4.2108e+06
-11.67143 3.894132 -24 4.2108e+06
-11.6921 4.286269 -24 4.2108e+06
-11.7128 4.67967 -24 4.2108e+06
-11.73361 5.074364 -24 4.2108e+06
-11.75443 5.47033 -24 4.2108e+06
-11.77538 5.867608 -24 4.2108e+06
-11.79634 6.266166 -24 4.2108e+06
-11.81743 6.666053 -24 4.2108e+06
-10.67695 -2.953028 -24 4.2108e+06
-10.69547 -2.582835 -24 4.2108e+06
-10.714 -2.211461 -24 4.2108e+06
-10.73264 -1.838922 -24 4.2108e+06
-10.75129 -1.465194 -24 4.2108e+06
-10.77004 -1.090288 -24 4.2108e+06
-10.78881 -0.7141817 -24 4.2108e+06
-10.80768 -0.3368828 -24 4.2108e+06
-10.82657 0.04162216 -24 4.2108e+06
-10.84556 0.4213347 -24 4.2108e+06
-10.86457 0.8022622 -24 4.2108e+06
-10.88369 1.184412 -24 4.2108e+06
-10.90282 1.567786 -24 4.2108e+06
-10.92206 1.952397 -24 4.2108e+06
-10.94131 2.33824 -24 4.2108e+06
-10.96067 2.725335 -24 4.2108e+06
-10.98005 3.113673 -24 4.2108e+06
-10.99954 3.503276 -24 4.2108e+06
-11.01905 3.894132 -24 4.2108e+06
-11.03866 4.286269 -24 4.2108e+06
-11.05829 4.67967 -24 4.2108e+06
-11.07804 5.074364 -24 4.2108e+06
-11.09779 5.470329 -24 4.2108e+06
-11.11767 5.867608 -24 4.2108e+06
-11.13756 6.266167 -24 4.2108e+06
-11.15756 6.666053 -24 4.2108e+06
-10.04306 -2.953028 -24 4.2108e+06
-10.06058 -2.582835 -24 4.2108e+06
-10.07811 -2.211461 -24 4.2108e+06
-10.09574 -1.838922 -24 4.2108e+06
-10.11338 -1.465194 -24 4.2108e+06
-10.13112 -1.090288 -24 4.2108e+06
-10.14887 -0.7141817 -24 4.2108e+06
-10.16673 -0.3368831 -24 4.2108e+06
-10.18459 0.04162204 -24 4.2108e+06
-10.20256 0.4213347 -24 4.2108e+06
-10.22054 0.8022622 -24 4.2108e+06
-10.23862 1.184412 -24 4.2108e+06
-10.25672 1.567786 -24 4.2108e+06
-10.27492 1.952397 -24 4.2108e+06
-10.29313 2.33824 -24 4.2108e+06
-10.31145 2.725335 -24 4.2108e+06
-10.32978 3.113673 -24 4.2108e+06
-10.34822 3.503276 -24 4.2108e+06
-10.36667 3.894132 -24 4.2108e+06
-10.38522 4.286269 -24 4.2108e+06
-10.40379 4.679669 -24 4.2108e+06
-10.42247 5.074364 -24 4.2108e+06
-10.44116 5.47033 -24 4.2108e+06
-10.45996 5.867608 -24 4.2108e+06
-10.47877 6.266166 -24 4.2108e+06
-10.49769 6.666053 -24 4.2108e+06
-9.409175 -2.953028 -24 4.2108e+06
-9.425691 -2.582835 -24 4.2108e+06
-9.442219 -2.211461 -24 4.2108e+06
-9.458839 -1.838922 -24 4.2108e+06
-9.475472 -1.465194 -24 4.2108e+06
-9.492198 -1.090288 -24 4.2108e+06
-9.508938 -0.7141817 -24 4.2108e+06
-9.525771 -0.3368831 -24 4.2108e+06
-9.542617 0.04162204 -24 4.2108e+06
-9.559556 0.4213347 -24 4.2108e+06
-9.57651 0.8022622 -24 4.2108e+06
-9.59356 1.184412 -24 4.2108e+06
-9.610622 1.567786 -24 4.2108e+06
-9.627781 1.952397 -24 4.2108e+06
-9.644954 2.33824 -24 4.2108e+06
-9.662224 2.725335 -24 4.2108e+06
-9.679507 3.113673 -24 4.2108e+06
-9.69689 3.503276 -24 4.2108e+06
-9.714285 3.894132 -24 4.2108e+06
-9.731779 4.286269 -24 4.2108e+06
-9.749288 4.679669 -24 4.2108e+06
-9.766897 5.074364 -24 4.2108e+06
-9.784521 5.47033 -24 4.2108e+06
-9.802244 5.867608 -24 4.2108e+06
-9.819983 6.266166 -24 4.2108e+06
-9.837824 6.666053 -24 4.2108e+06
-8.775285 -2.953028 -24 4.2108e+06
-8.7908 -2.582835 -24 4.2108e+06
-8.806326 -2.211461 -24 4.2108e+06
-8.821939 -1.838922 -24 4.2108e+06
-8.837564 -1.465194 -24 4.2108e+06
-8.853277 -1.090288 -24 4.2108e+06
-8.869002 -0.7141817 -24 4.2108e+06
-8.884814 -0.3368828 -24 4.2108e+06
-8.900639 0.04162216 -24 4.2108e+06
-8.916553 0.4213347 -24 4.2108e+06
-8.93248 0.8022622 -24 4.2108e+06
-8.948495 1.184412 -24 4.2108e+06
-8.964524 1.567786 -24 4.2108e+06
-8.980642 1.952397 -24 4.2108e+06
-8.996776 2.33824 -24 4.2108e+06
-9.012998 2.725335 -24 4.2108e+06
-9.029234 3.113673 -24 4.2108e+06
-9.045562 3.503276 -24 4.2108e+06
-9.061904 3.894132 -24 4.2108e+06
-9.078339 4.286269 -24 4.2108e+06
-9.094786 4.67967 -24 4.2108e+06
-9.111327 5.074364 -24 4.2108e+06
-9.127882 5.470329 -24 4.2108e+06
-9.144532 5.867608 -24 4.2108e+06
-9.161197 6.266166 -24 4.2108e+06
-9.177955 6.666052 -24 4.2108e+06
-8.141396 -2.953027 -24 4.2108e+06
-8.15591 -2.582835 -24 4.2108e+06
-8.170435 -2.211461 -24 4.2108e+06
-8.18504 -1.838922 -24 4.2108e+06
-8.199657 -1.465194 -24 4.2108e+06
-8.214355 -1.090288 -24 4.2108e+06
-8.229066 -0.7141817 -24 4.2108e+06
-8.243858 -0.3368831 -24 4.2108e+06
-8.258662 0.04162216 -24 4.2108e+06
-8.273549 0.4213347 -24 4.2108e+06
-8.288449 0.8022622 -24 4.2108e+06
-8.303432 1.184412 -24 4.2108e+06
-8.318425 1.567786 -24 4.2108e+06
-8.333504 1.952397 -24 4.2108e+06
-8.348597 2.33824 -24 4.2108e+06
-8.363772 2.725335 -24 4.2108e+06
-8.378962 3.113673 -24 4.2108e+06
-8.394236 3.503276 -24 4.2108e+06
-8.409523 3.894132 -24 4.2108e+06
-8.424896 4.286269 -24 4.2108e+06
-8.440283 4.67967 -24 4.2108e+06
-8.455758 5.074364 -24 4.2108e+06
-8.471245 5.47033 -24 4.2108e+06
-8.48682 5.867608 -24 4.2108e+06
-8.502409 6.266166 -24 4.2108e+06
-8.518086 6.666053 -24 4.2108e+06
-7.507507 -2.953028 -24 4.2108e+06
-7.52102 -2.582835 -24 4.2108e+06
-7.534543 -2.211461 -24 4.2108e+06
-7.548141 -1.838922 -24 4.2108e+06
-7.56175 -1.465194 -24 4.2108e+06
-7.575437 -1.090288 -24 4.2108e+06
-7.589131 -0.7141817 -24 4.2108e+06
-7.602903 -0.3368831 -24 4.2108e+06
-7.616687 0.04162204 -24 4.2108e+06
-7.630547 0.4213347 -24 4.2108e+06
-7.644419 0.8022622 -24 4.2108e+06
-7.658368 1.184412 -24 4.2108e+06
-7.672328 1.567786 -24 4.2108e+06
-7.686367 1.952397 -24 4.2108e+06
-7.700418 2.338241 -24 4.2108e+06
-7.714547 2.725335 -24 4.2108e+06
-7.728689 3.113673 -24 4.2108e+06
-7.742909 3.503276 -24 4.2108e+06
-7.757143 3.894132 -24 4.2108e+06
-7.771457 4.286269 -24 4.2108e+06
-7.785783 4.67967 -24 4.2108e+06
-7.80019 5.074364 -24 4.2108e+06
-7.814608 5.470329 -24 4.2108e+06
-7.829109 5.867608 -24 4.2108e+06
-7.843623 6.266166 -24 4.2108e+06
-7.858219 6.666053 -24 4.2108e+06
-7.209817 -3.108875 -23.65759 4.2108e+06
-7.209817 -2.717547 -23.67085 4.2108e+06
-7.209817 -2.32622 -23.68408 4.2108e+06
-7.209817 -1.934891 -23.69735 4.2108e+06
-7.209817 -1.543564 -23.71058 4.2108e+06
-7.209817 -1.152237 -23.72384 4.2108e+06
-7.209817 -0.7609088 -23.73707 4.2108e+06
-7.209817 -0.3695805 -23.75034 4.2108e+06
-7.209817 0.02174687 -23.76357 4.2108e+06
-7.209817 0.4130753 -23.77683 4.2108e+06
-7.209817 0.8044022 -23.79006 4.2108e+06
-7.209817 1.195731 -23.80332 4.2108e+06
-7.209817 1.587057 -23.81656 4.2108e+06
-7.209817 1.978386 -23.82981 4.2108e+06
-7.209817 2.369713 -23.84305 4.2108e+06
-7.209817 2.761041 -23.85631 4.2108e+06
-7.209817 3.152369 -23.86954 4.2108e+06
-7.209817 3.543695 -23.8828 4.2108e+06
-7.209817 3.935024 -23.89604 4.2108e+06
-7.209817 4.326351 -23.9093 4.2108e+06
-7.209817 4.717682 -23.92253 4.2108e+06
-7.209817 5.109008 -23.93579 4.2108e+06
-7.209817 5.500337 -23.94902 4.2108e+06
-7.209817 5.891664 -23.96229 4.2108e+06
-7.209817 6.28299 -23.97552 4.2108e+06
-7.209817 6.674319 -23.98878 4.2108e+06
-7.209817 -3.016464 -22.94049 4.2108e+06
-7.209817 -2.591109 -22.95487 4.2108e+06
-7.209817 -2.165751 -22.96929 4.2108e+06
-7.209817 -1.740396 -22.98367 4.2108e+06
-7.209817 -1.31504 -22.99809 4.2108e+06
-7.209817 -0.8896835 -23.01247 4.2108e+06
-7.209817 -0.4643266 -23.02689 4.2108e+06
-7.209817 -0.03897071 -23.04127 4.2108e+06
-7.209817 0.3863862 -23.05568 4.2108e+06
-7.209817 0.8117416 -23.07006 4.2108e+06
-7.209817 1.237098 -23.08448 4.2108e+06
-7.209817 1.662454 -23.09886 4.2108e+06
-7.209817 2.087811 -23.11328 4.2108e+06
-7.209817 2.513167 -23.12766 4.2108e+06
-7.209817 2.938523 -23.14208 4.2108e+06
-7.209817 3.36388 -23.15646 4.2108e+06
-7.209817 3.789234 -23.17088 4.2108e+06
-7.209817 4.214591 -23.18526 4.2108e+06
-7.209817 4.639947 -23.19967 4.2108e+06
-7.209817 5.065306 -23.21405 4.2108e+06
-7.209817 5.490661 -23.22847 4.2108e+06
-7.209817 5.916018 -23.24285 4.2108e+06
-7.209817 6.341373 -23.25727 4.2108e+06
-7.209817 6.766729 -23.27165 4.2108e+06
-7.209817 -2.906452 -22.08677 4.2108e+06
-7.209817 -2.440585 -22.10255 4.2108e+06
-7.209817 -1.974719 -22.11831 4.2108e+06
-7.209817 -1.508854 -22.13409 4.2108e+06
-7.209817 -1.042987 -22.14985 4.2108e+06
-7.209817 -0.5771196 -22.16563 4.2108e+06
-7.209817 -0.1112537 -22.18139 4.2108e+06
-7.209817 0.3546134 -22.19717 4.2108e+06
-7.209817 0.8204789 -22.21293 4.2108e+06
-7.209817 1.286346 -22.22872 4.2108e+06
-7.209817 1.752211 -22.24447 4.2108e+06
-7.209817 2.218078 -22.26026 4.2108e+06
-7.209817 2.683944 -22.27601 4.2108e+06
-7.209817 3.149811 -22.2918 4.2108e+06
-7.209817 3.615677 -22.30755 4.2108e+06
-7.209817 4.081542 -22.32334 4.2108e+06
-7.209817 4.54741 -22.33909 4.2108e+06
-7.209817 5.013275 -22.35488 4.2108e+06
-7.209817 5.479145 -22.37063 4.2108e+06
-7.209817 5.945009 -22.38642 4.2108e+06
-7.209817 6.410877 -22.40217 4.2108e+06
-7.209817 -2.773278 -21.05335 4.2108e+06
-7.209817 -2.258373 -21.07076 4.2108e+06
-7.209817 -1.74347 -21.08821 4.2108e+06
-7.209817 -1.228565 -21.10562 4.2108e+06
-7.209817 -0.7136583 -21.12307 4.2108e+06
-7.209817 -0.1987541 -21.14048 4.2108e+06
-7.209817 0.3161517 -21.15793 4.2108e+06
-7.209817 0.8310556 -21.17534 4.2108e+06
-7.209817 1.345961 -21.19279 4.2108e+06
-7.209817 1.860865 -21.2102 4.2108e+06
-7.209817 2.375771 -21.22765 4.2108e+06
-7.209817 2.890676 -21.24506 4.2108e+06
-7.209817 3.40558 -21.26251 4.2108e+06
-7.209817 3.920485 -21.27992 4.2108e+06
-7.209817 4.435389 -21.29737 4.2108e+06
-7.209817 4.950295 -21.31479 4.2108e+06
-7.209817 5.465199 -21.33223 4.2108e+06
-7.209817 5.980107 -21.34964 4.2108e+06
-7.209817 6.49501 -21.3671 4.2108e+06
-7.209817 -3.184252 -19.75727 4.2108e+06
-7.209817 -2.608771 -19.77673 4.2108e+06
-7.209817 -2.03329 -19.79623 4.2108e+06
-7.209817 -1.457807 -19.81569 4.2108e+06
-7.209817 -0.8823242 -19.8352 4.2108e+06
-7.209817 -0.3068428 -19.85465 4.2108e+06
-7.209817 0.2686402 -19.87416 4.2108e+06
-7.209817 0.844121 -19.89362 4.2108e+06
-7.209817 1.419604 -19.91312 4.2108e+06
-7.209817 1.995085 -19.93258 4.2108e+06
-7.209817 2.570568 -19.95208 4.2108e+06
-7.209817 3.146049 -19.97154 4.2108e+06
-7.209817 3.72153 -19.99104 4.2108e+06
-7.209817 4.297013 -20.0105 4.2108e+06
-7.209817 4.872494 -20.03001 4.2108e+06
-7.209817 5.447977 -20.04946 4.2108e+06
-7.209817 6.023458 -20.06897 4.2108e+06
-7.209817 6.598944 -20.08842 4.2108e+06
-7.209817 -3.052606 -18.13763 4.2108e+06
-7.209817 -2.400395 -18.15973 4.2108e+06
-7.209817 -1.748181 -18.18179 4.2108e+06
-7.209817 -1.095968 -18.20389 4.2108e+06
-7.209817 -0.4437549 -18.22594 4.2108e+06
-7.209817 0.2084589 -18.24805 4.2108e+06
-7.209817 0.8606704 -18.2701 4.2108e+06
-7.209817 1.512884 -18.29221 4.2108e+06
-7.209817 2.165096 -18.31426 4.2108e+06
-7.209817 2.81731 -18.33636 4.2108e+06
-7.209817 3.469522 -18.35841 4.2108e+06
-7.209817 4.121734 -18.38052 4.2108e+06
-7.209817 4.773949 -18.40257 4.2108e+06
-7.209817 5.426159 -18.42467 4.2108e+06
-7.209817 6.078373 -18.44673 4.2108e+06
-7.209817 6.730584 -18.46883 4.2108e+06
