VERSION 0.7
FIELDS x y z rgb
SIZE 4 4 4 4
TYPE F F F F
COUNT 1 1 1 1
WIDTH 455
HEIGHT 1
VIEWPOINT 0 0 0 1 0 0 0
POINTS 455
DATA ascii 
-15.74807 -2.953028 -24 4.2108e+06
-15.77459 -2.582835 -24 4.2108e+06
-15.80114 -2.211462 -24 4.2108e+06
-15.82783 -1.838922 -24 4.2108e+06
-15.85455 -1.465194 -24 4.2108e+06
-15.88141 -1.090288 -24 4.2108e+06
-15.11418 -2.953028 -24 4.2108e+06
-15.1397 -2.582835 -24 4.2108e+06
-15.16525 -2.211461 -24 4.2108e+06
-15.19093 -1.838923 -24 4.2108e+06
-15.21664 -1.465194 -24 4.2108e+06
-15.24249 -1.090288 -24 4.2108e+06
-15.26836 -0.7141817 -24 4.2108e+06
-15.29437 -0.3368831 -24 4.2108e+06
-15.32041 0.04162204 -24 4.2108e+06
-15.34659 0.4213347 -24 4.2108e+06
-15.37279 0.8022622 -24 4.2108e+06
-15.39914 1.184412 -24 4.2108e+06
-15.42551 1.567786 -24 4.2108e+06
-15.45203 1.952397 -24 4.2108e+06
-15.47856 2.33824 -24 4.2108e+06
-15.50525 2.725335 -24 4.2108e+06
-15.53197 3.113673 -24 4.2108e+06
-15.55883 3.503276 -24 4.2108e+06
-15.58571 3.894132 -24 4.2108e+06
-15.61275 4.286269 -24 4.2108e+06
-15.63981 4.67967 -24 4.2108e+06
-15.66702 5.074364 -24 4.2108e+06
-15.69426 5.470329 -24 4.2108e+06
-15.72165 5.867607 -24 4.2108e+06
-15.74906 6.266166 -24 4.2108e+06
-15.77664 6.666053 -24 4.2108e+06
-14.48029 -2.953028 -24 4.2108e+06
-14.50481 -2.582835 -24 4.2108e+06
-14.52936 -2.211461 -24 4.2108e+06
-14.55403 -1.838923 -24 4.2108e+06
-14.57873 -1.465194 -24 4.2108e+06
-14.60357 -1.090288 -24 4.2108e+06
-14.62842 -0.7141817 -24 4.2108e+06
-14.65342 -0.3368831 -24 4.2108e+06
-14.67843 0.04162204 -24 4.2108e+06
-14.70358 0.4213347 -24 4.2108e+06
-14.72876 0.8022622 -24 4.2108e+06
-14.75407 1.184412 -24 4.2108e+06
-14.77941 1.567786 -24 4.2108e+06
-14.80489 1.952397 -24 4.2108e+06
-14.83039 2.33824 -24 4.2108e+06
-14.85603 2.725335 -24 4.2108e+06
-14.88169 3.113673 -24 4.2108e+06
-14.9075 3.503276 -24 4.2108e+06
-14.93333 3.894132 -24 4.2108e+06
-14.95931 4.286269 -24 4.2108e+06
-14.98531 4.679669 -24 4.2108e+06
-15.01145 5.074364 -24 4.2108e+06
-15.03762 5.47033 -24 4.2108e+06
-15.06394 5.867608 -24 4.2108e+06
-15.09028 6.266167 -24 4.2108e+06
-15.11677 6.666052 -24 4.2108e+06
-13.8464 -2.953028 -24 4.2108e+06
-13.86992 -2.582835 -24 4.2108e+06
-13.89346 -2.211461 -24 4.2108e+06
-13.91713 -1.838922 -24 4.2108e+06
-13.94082 -1.465194 -24 4.2108e+06
-13.96465 -1.090288 -24 4.2108e+06
-13.98849 -0.7141817 -24 4.2108e+06
-14.01246 -0.3368828 -24 4.2108e+06
-14.03646 0.04162204 -24 4.2108e+06
-14.06058 0.4213347 -24 4.2108e+06
-14.08473 0.8022622 -24 4.2108e+06
-14.10901 1.184412 -24 4.2108e+06
-14.13331 1.567786 -24 4.2108e+06
-14.15775 1.952397 -24 4.2108e+06
-14.18221 2.33824 -24 4.2108e+06
-14.2068 2.725335 -24 4.2108e+06
-14.23142 3.113673 -24 4.2108e+06
-14.25617 3.503276 -24 4.2108e+06
-14.28095 3.894132 -24 4.2108e+06
-14.30587 4.286269 -24 4.2108e+06
-14.3308 4.67967 -24 4.2108e+06
-14.35588 5.074364 -24 4.2108e+06
-14.38098 5.47033 -24 4.2108e+06
-14.40623 5.867608 -24 4.2108e+06
-14.43149 6.266166 -24 4.2108e+06
-14.4569 6.666054 -24 4.2108e+06
-13.21251 -2.953028 -24 4.2108e+06
-13.23503 -2.582835 -24 4.2108e+06
-13.25757 -2.211461 -24 4.2108e+06
-13.28024 -1.838922 -24 4.2108e+06
-13.30292 -1.465194 -24 4.2108e+06
-13.32572 -1.090288 -24 4.2108e+06
-13.34855 -0.7141817 -24 4.2108e+06
-13.37151 -0.3368831 -24 4.2108e+06
-13.39448 0.04162204 -24 4.2108e+06
-13.41758 0.4213347 -24 4.2108e+06
-13.4407 0.8022622 -24 4.2108e+06
-13.46394 1.184412 -24 4.2108e+06
-13.48721 1.567786 -24 4.2108e+06
-13.51061 1.952397 -24 4.2108e+06
-13.53403 2.33824 -24 4.2108e+06
-13.55758 2.725335 -24 4.2108e+06
-13.58115 3.113673 -24 4.2108e+06
-13.60485 3.503276 -24 4.2108e+06
-13.62857 3.894132 -24 4.2108e+06
-13.65242 4.286269 -24 4.2108e+06
-13.6763 4.67967 -24 4.2108e+06
-13.70031 5.074364 -24 4.2108e+06
-13.72435 5.470329 -24 4.2108e+06
-13.74851 5.867608 -24 4.2108e+06
-13.7727 6.266166 -24 4.2108e+06
-13.79703 6.666053 -24 4.2108e+06
-12.57862 -2.953028 -24 4.2108e+06
-12.60014 -2.582835 -24 4.2108e+06
-12.62168 -2.211461 -24 4.2108e+06
-12.64334 -1.838922 -24 4.2108e+06
-12.66501 -1.465194 -24 4.2108e+06
-12.6868 -1.090287 -24 4.2108e+06
-12.70862 -0.7141819 -24 4.2108e+06
-12.73055 -0.3368833 -24 4.2108e+06
-12.7525 0.04162204 -24 4.2108e+06
-12.77457 0.4213347 -24 4.2108e+06
-12.79666 0.8022622 -24 4.2108e+06
-12.81888 1.184412 -24 4.2108e+06
-12.84111 1.567786 -24 4.2108e+06
-12.86347 1.952397 -24 4.2108e+06
-12.88585 2.33824 -24 4.2108e+06
-12.90835 2.725335 -24 4.2108e+06
-12.93087 3.113673 -24 4.2108e+06
-12.95352 3.503276 -24 4.2108e+06
-12.97619 3.894132 -24 4.2108e+06
-12.99898 4.286269 -24 4.2108e+06
-13.0218 4.67967 -24 4.2108e+06
-13.04474 5.074364 -24 4.2108e+06
-13.06771 5.47033 -24 4.2108e+06
-13.0908 5.867608 -24 4.2108e+06
-13.11392 6.266166 -24 4.2108e+06
-13.13716 6.666053 -24 4.2108e+06
-11.94473 -2.953028 -24 4.2108e+06
-11.96525 -2.582835 -24 4.2108e+06
-11.98579 -2.211461 -24 4.2108e+06
-12.00644 -1.838922 -24 4.2108e+06
-12.0271 -1.465194 -24 4.2108e+06
-12.04788 -1.090288 -24 4.2108e+06
-12.06868 -0.7141817 -24 4.2108e+06
-12.08959 -0.3368828 -24 4.2108e+06
-12.11052 0.04162216 -24 4.2108e+06
-12.13157 0.4213347 -24 4.2108e+06
-12.15264 0.8022622 -24 4.2108e+06
-12.17382 1.184412 -24 4.2108e+06
-12.19502 1.567786 -24 4.2108e+06
-12.21633 1.952397 -24 4.2108e+06
-12.23767 2.33824 -24 4.2108e+06
-12.25912 2.725335 -24 4.2108e+06
-12.2806 3.113673 -24 4.2108e+06
-12.3022 3.503276 -24 4.2108e+06
-12.32381 3.894132 -24 4.2108e+06
-12.34554 4.286269 -24 4.2108e+06
-12.3673 4.67967 -24 4.2108e+06
-12.38918 5.074364 -24 4.2108e+06
-12.41107 5.470329 -24 4.2108e+06
-12.43309 5.867607 -24 4.2108e+06
-12.45513 6.266167 -24 4.2108e+06
-12.47729 6.666052 -24 4.2108e+06
-11.31084 -2.953028 -24 4.2108e+06
-11.33036 -2.582835 -24 4.2108e+06
-11.34989 -2.211461 -24 4.2108e+06
-11.36954 -1.838922 -24 4.2108e+06
-11.3892 -1.465194 -24 4.2108e+06
-11.40896 -1.090288 -24 4.2108e+06
-11.42875 -0.7141817 -24 4.2108e+06
-11.44864 -0.3368828 -24 4.2108e+06
-11.46855 0.04162216 -24 4.2108e+06
-11.48857 0.4213347 -24 4.2108e+06
-11.5086 0.8022622 -24 4.2108e+06
-11.52875 1.184412 -24 4.2108e+06
-11.54892 1.567786 -24 4.2108e+06
-11.5692 1.952397 -24 4.2108e+06
-11.58949 2.33824 -24 4.2108e+06
-11.6099 2.725335 -24 4.2108e+06
-11.63033 3.113673 -24 4.2108e+06
-11.65087 3.503276 -24 4.2108e+06
-11.67143 3.894132 -24 4.2108e+06
-11.6921 4.286269 -24 4.2108e+06
-11.7128 4.67967 -24 4.2108e+06
-11.73361 5.074364 -24 4.2108e+06
-11.75443 5.47033 -24 4.2108e+06
-11.77538 5.867608 -24 4.2108e+06
-11.79634 6.266166 -24 4.2108e+06
-11.81743 6.666053 -24 4.2108e+06
-10.67695 -2.953028 -24 4.2108e+06
-10.69547 -2.582835 -24 4.2108e+06
-10.714 -2.211461 -24 4.2108e+06
-10.73264 -1.838922 -24 4.2108e+06
-10.75129 -1.465194 -24 4.2108e+06
-10.77004 -1.090288 -24 4.2108e+06
-10.78881 -0.7141817 -24 4.2108e+06
-10.80768 -0.3368828 -24 4.2108e+06
-10.82657 0.04162216 -24 4.2108e+06
-10.84556 0.4213347 -24 4.2108e+06
-10.86457 0.8022622 -24 4.2108e+06
-10.88369 1.184412 -24 4.2108e+06
-10.90282 1.567786 -24 4.2108e+06
-10.92206 1.952397 -24 4.2108e+06
-10.94131 2.33824 -24 4.2108e+06
-10.96067 2.725335 -24 4.2108e+06
-10.98005 3.113673 -24 4.2108e+06
-10.99954 3.503276 -24 4.2108e+06
-11.01905 3.894132 -24 4.2108e+06
-11.03866 4.286269 -24 4.2108e+06
-11.05829 4.67967 -24 4.2108e+06
-11.07804 5.074364 -24 4.2108e+06
-11.09779 5.470329 -24 4.2108e+06
-11.11767 5.867608 -24 4.2108e+06
-11.13756 6.266167 -24 4.2108e+06
-11.15756 6.666053 -24 4.2108e+06
-10.04306 -2.953028 -24 4.2108e+06
-10.06058 -2.582835 -24 4.2108e+06
-10.07811 -2.211461 -24 4.2108e+06
-10.09574 -1.838922 -24 4.2108e+06
-10.11338 -1.465194 -24 4.2108e+06
-10.13112 -1.090288 -24 4.2108e+06
-10.14887 -0.7141817 -24 4.2108e+06
-10.16673 -0.3368831 -24 4.2108e+06
-10.18459 0.04162204 -24 4.2108e+06
-10.20256 0.4213347 -24 4.2108e+06
-10.22054 0.8022622 -24 4.2108e+06
-10.23862 1.184412 -24 4.2108e+06
-10.25672 1.567786 -24 4.2108e+06
-10.27492 1.952397 -24 4.2108e+06
-10.29313 2.33824 -24 4.2108e+06
-10.31145 2.725335 -24 4.2108e+06
-10.32978 3.113673 -24 4.2108e+06
-10.34822 3.503276 -24 4.2108e+06
-10.36667 3.894132 -24 4.2108e+06
-10.38522 4.286269 -24 4.2108e+06
-10.40379 4.679669 -24 4.2108e+06
-10.42247 5.074364 -24 4.2108e+06
-10.44116 5.47033 -24 4.2108e+06
-10.45996 5.867608 -24 4.2108e+06
-10.47877 6.266166 -24 4.2108e+06
-10.49769 6.666053 -24 4.2108e+06
-9.409175 -2.953028 -24 4.2108e+06
-9.425691 -2.582835 -24 4.2108e+06
-9.442219 -2.211461 -24 4.2108e+06
-9.458839 -1.838922 -24 4.2108e+06
-9.475472 -1.465194 -24 4.2108e+06
-9.492198 -1.090288 -24 4.2108e+06
-9.508938 -0.7141817 -24 4.2108e+06
-9.525771 -0.3368831 -24 4.2108e+06
-9.542617 0.04162204 -24 4.2108e+06
-9.559556 0.4213347 -24 4.2108e+06
-9.57651 0.8022622 -24 4.2108e+06
-9.59356 1.184412 -24 4.2108e+06
-9.610622 1.567786 -24 4.2108e+06
-9.627781 1.952397 -24 4.2108e+06
-9.644954 2.33824 -24 4.2108e+06
-9.662224 2.725335 -24 4.2108e+06
-9.679507 3.113673 -24 4.2108e+06
-9.69689 3.503276 -24 4.2108e+06
-9.714285 3.894132 -24 4.2108e+06
-9.731779 4.286269 -24 4.2108e+06
-9.749288 4.679669 -24 4.2108e+06
-9.766897 5.074364 -24 4.2108e+06
-9.784521 5.47033 -24 4.2108e+06
-9.802244 5.867608 -24 4.2108e+06
-9.819983 6.266166 -24 4.2108e+06
-9.837824 6.666053 -24 4.2108e+06
-8.775285 -2.953028 -24 4.2108e+06
-8.7908 -2.582835 -24 4.2108e+06
-8.806326 -2.211461 -24 4.2108e+06
-8.821939 -1.838922 -24 4.2108e+06
-8.837564 -1.465194 -24 4.2108e+06
-8.853277 -1.090288 -24 4.2108e+06
-8.869002 -0.7141817 -24 4.2108e+06
-8.884814 -0.3368828 -24 4.2108e+06
-8.900639 0.04162216 -24 4.2108e+06
-8.916553 0.4213347 -24 4.2108e+06
-8.93248 0.8022622 -24 4.2108e+06
-8.948495 1.184412 -24 4.2108e+06
-8.964524 1.567786 -24 4.2108e+06
-8.980642 1.952397 -24 4.2108e+06
-8.996776 2.33824 -24 4.2108e+06
-9.012998 2.725335 -24 4.2108e+06
-9.029234 3.113673 -24 4.2108e+06
-9.045562 3.503276 -24 4.2108e+06
-9.061904 3.894132 -24 4.2108e+06
-9.078339 4.286269 -24 4.2108e+06
-9.094786 4.67967 -24 4.2108e+06
-9.111327 5.074364 -24 4.2108e+06
-9.127882 5.470329 -24 4.2108e+06
-9.144532 5.867608 -24 4.2108e+06
-9.161197 6.266166 -24 4.2108e+06
-9.177955 6.666052 -24 4.2108e+06
-8.141396 -2.953027 -24 4.2108e+06
-8.15591 -2.582835 -24 4.2108e+06
-8.170435 -2.211461 -24 4.2108e+06
-8.18504 -1.838922 -24 4.2108e+06
-8.199657 -1.465194 -24 4.2108e+06
-8.214355 -1.090288 -24 4.2108e+06
-8.229066 -0.7141817 -24 4.2108e+06
-8.243858 -0.3368831 -24 4.2108e+06
-8.258662 0.04162216 -24 4.2108e+06
-8.273549 0.4213347 -24 4.2108e+06
-8.288449 0.8022622 -24 4.2108e+06
-8.303432 1.184412 -24 4.2108e+06
-8.318425 1.567786 -24 4.2108e+06
-8.333504 1.952397 -24 4.2108e+06
-8.348597 2.33824 -24 4.2108e+06
-8.363772 2.725335 -24 4.2108e+06
-8.378962 3.113673 -24 4.2108e+06
-8.394236 3.503276 -24 4.2108e+06
-8.409523 3.894132 -24 4.2108e+06
-8.424896 4.286269 -24 4.2108e+06
-8.440283 4.67967 -24 4.2108e+06
-8.455758 5.074364 -24 4.2108e+06
-8.471245 5.47033 -24 4.2108e+06
-8.48682 5.867608 -24 4.2108e+06
-8.502409 6.266166 -24 4.2108e+06
-8.518086 6.666053 -24 4.2108e+06
-7.899025 -3.121074 -23.63079 4.2108e+06
-7.899025 -2.728499 -23.64409 4.2108e+06
-7.899025 -2.335925 -23.65736 4.2108e+06
-7.899025 -1.94335 -23.67067 4.2108e+06
-7.899025 -1.550776 -23.68394 4.2108e+06
-7.899025 -1.158202 -23.69725 4.2108e+06
-7.899025 -0.7656271 -23.71052 4.2108e+06
-7.899025 -0.3730519 -23.72383 4.2108e+06
-7.899025 0.01952231 -23.7371 4.2108e+06
-7.899025 0.4120975 -23.7504 4.2108e+06
-7.899025 0.8046712 -23.76368 4.2108e+06
-7.899025 1.197246 -23.77699 4.2108e+06
-7.899025 1.58982 -23.79026 4.2108e+06
-7.899025 1.982395 -23.80356 4.2108e+06
-7.899025 2.374969 -23.81684 4.2108e+06
-7.899025 2.767544 -23.83014 4.2108e+06
-7.899025 3.160119 -23.84341 4.2108e+06
-7.899025 3.552692 -23.85672 4.2108e+06
-7.899025 3.945267 -23.86999 4.2108e+06
-7.899025 4.337841 -23.8833 4.2108e+06
-7.899025 4.730418 -23.89657 4.2108e+06
-7.899025 5.122992 -23.90988 4.2108e+06
-7.899025 5.515567 -23.92315 4.2108e+06
-7.899025 5.908141 -23.93645 4.2108e+06
-7.899025 6.300715 -23.94973 4.2108e+06
-7.899025 6.69329 -23.96303 4.2108e+06
-7.899025 -3.00438 -22.97002 4.2108e+06
-7.899025 -2.5804 -22.98435 4.2108e+06
-7.899025 -2.156418 -22.99872 4.2108e+06
-7.899025 -1.732438 -23.01306 4.2108e+06
-7.899025 -1.308459 -23.02743 4.2108e+06
-7.899025 -0.8844774 -23.04176 4.2108e+06
-7.899025 -0.4604962 -23.05613 4.2108e+06
-7.899025 -0.03651595 -23.07047 4.2108e+06
-7.899025 0.3874652 -23.08484 4.2108e+06
-7.899025 0.8114449 -23.09917 4.2108e+06
-7.899025 1.235426 -23.11354 4.2108e+06
-7.899025 1.659406 -23.12788 4.2108e+06
-7.899025 2.083387 -23.14225 4.2108e+06
-7.899025 2.507367 -23.15658 4.2108e+06
-7.899025 2.931347 -23.17095 4.2108e+06
-7.899025 3.355328 -23.18529 4.2108e+06
-7.899025 3.779308 -23.19966 4.2108e+06
-7.899025 4.203289 -23.21399 4.2108e+06
-7.899025 4.627269 -23.22836 4.2108e+06
-7.899025 5.051252 -23.2427 4.2108e+06
-7.899025 5.475231 -23.25706 4.2108e+06
-7.899025 5.899213 -23.2714 4.2108e+06
-7.899025 6.323193 -23.28577 4.2108e+06
-7.899025 6.747173 -23.30011 4.2108e+06
-7.899025 -2.867391 -22.1943 4.2108e+06
-7.899025 -2.406542 -22.20992 4.2108e+06
-7.899025 -1.945694 -22.2255 4.2108e+06
-7.899025 -1.484846 -22.24112 4.2108e+06
-7.899025 -1.023997 -22.2567 4.2108e+06
-7.899025 -0.563148 -22.27232 4.2108e+06
-7.899025 -0.1023 -22.2879 4.2108e+06
-7.899025 0.3585491 -22.30352 4.2108e+06
-7.899025 0.8193966 -22.3191 4.2108e+06
-7.899025 1.280246 -22.33472 4.2108e+06
-7.899025 1.741093 -22.3503 4.2108e+06
-7.899025 2.201942 -22.36592 4.2108e+06
-7.899025 2.662791 -22.3815 4.2108e+06
-7.899025 3.123639 -22.39712 4.2108e+06
-7.899025 3.584488 -22.4127 4.2108e+06
-7.899025 4.045334 -22.42832 4.2108e+06
-7.899025 4.506184 -22.4439 4.2108e+06
-7.899025 4.967031 -22.45952 4.2108e+06
-7.899025 5.427883 -22.47511 4.2108e+06
-7.899025 5.88873 -22.49072 4.2108e+06
-7.899025 6.349579 -22.50631 4.2108e+06
-7.899025 -2.704308 -21.27086 4.2108e+06
-7.899025 -2.19957 -21.28793 4.2108e+06
-7.899025 -1.694832 -21.30503 4.2108e+06
-7.899025 -1.190092 -21.3221 4.2108e+06
-7.899025 -0.6853526 -21.3392 4.2108e+06
-7.899025 -0.1806144 -21.35627 4.2108e+06
-7.899025 0.3241253 -21.37338 4.2108e+06
-7.899025 0.8288629 -21.39044 4.2108e+06
-7.899025 1.333602 -21.40755 4.2108e+06
-7.899025 1.83834 -21.42462 4.2108e+06
-7.899025 2.34308 -21.44172 4.2108e+06
-7.899025 2.847818 -21.45879 4.2108e+06
-7.899025 3.352556 -21.47589 4.2108e+06
-7.899025 3.857296 -21.49296 4.2108e+06
-7.899025 4.362033 -21.51007 4.2108e+06
-7.899025 4.866773 -21.52713 4.2108e+06
-7.899025 5.371511 -21.54424 4.2108e+06
-7.899025 5.876253 -21.56131 4.2108e+06
-7.899025 6.38099 -21.57841 4.2108e+06
-7.899025 -3.064761 -20.13411 4.2108e+06
-7.899025 -2.506892 -20.15297 4.2108e+06
-7.899025 -1.949024 -20.17188 4.2108e+06
-7.899025 -1.391155 -20.19074 4.2108e+06
-7.899025 -0.8332846 -20.20965 4.2108e+06
-7.899025 -0.2754159 -20.22851 4.2108e+06
-7.899025 0.2824543 -20.24742 4.2108e+06
-7.899025 0.8403222 -20.26628 4.2108e+06
-7.899025 1.398192 -20.28519 4.2108e+06
-7.899025 1.95606 -20.30405 4.2108e+06
-7.899025 2.51393 -20.32296 4.2108e+06
-7.899025 3.071799 -20.34182 4.2108e+06
-7.899025 3.629668 -20.36073 4.2108e+06
-7.899025 4.187538 -20.37959 4.2108e+06
-7.899025 4.745404 -20.39849 4.2108e+06
-7.899025 5.303275 -20.41736 4.2108e+06
-7.899025 5.861143 -20.43626 4.2108e+06
-7.899025 6.419017 -20.45513 4.2108e+06
-7.899025 -2.886527 -18.75097 4.2108e+06
-7.899025 -2.263027 -18.7721 4.2108e+06
-7.899025 -1.639526 -18.79318 4.2108e+06
-7.899025 -1.016024 -18.81431 4.2108e+06
-7.899025 -0.3925235 -18.83539 4.2108e+06
-7.899025 0.2309783 -18.85652 4.2108e+06
-7.899025 0.8544778 -18.87761 4.2108e+06
-7.899025 1.47798 -18.89874 4.2108e+06
-7.899025 2.101479 -18.91982 4.2108e+06
-7.899025 2.724981 -18.94095 4.2108e+06
-7.899025 3.348481 -18.96203 4.2108e+06
-7.899025 3.971982 -18.98316 4.2108e+06
-7.899025 4.595484 -19.00424 4.2108e+06
-7.899025 5.218982 -19.02538 4.2108e+06
-7.899025 5.842484 -19.04646 4.2108e+06
-7.899025 6.465983 -19.06759 4.2108e+06
-7.899025 -1.954129 -17.02294 4.2108e+06
-7.899025 -1.247494 -17.04689 4.2108e+06
-7.899025 -0.5408599 -17.07078 4.2108e+06
-7.899025 0.1657753 -17.09473 4.2108e+06
-7.899025 0.872408 -17.11862 4.2108e+06
-7.899025 1.579043 -17.14257 4.2108e+06
-7.899025 2.285676 -17.16646 4.2108e+06
-7.899025 2.992312 -17.19041 4.2108e+06
-7.899025 3.698945 -17.2143 4.2108e+06
-7.899025 4.405579 -17.23825 4.2108e+06
-7.899025 5.112214 -17.26215 4.2108e+06
-7.899025 5.818846 -17.28609 4.2108e+06
-7.899025 6.525481 -17.30999 4.2108e+06
