VERSION 0.7
FIELDS x y z rgb
SIZE 4 4 4 4
TYPE F F F F
COUNT 1 1 1 1
WIDTH 446
HEIGHT 1
VIEWPOINT 0 0 0 1 0 0 0
POINTS 446
DATA ascii 
-15.74807 -2.953028 -24 4.2108e+06
-15.77459 -2.582835 -24 4.2108e+06
-15.80114 -2.211462 -24 4.2108e+06
-15.82783 -1.838922 -24 4.2108e+06
-15.85455 -1.465194 -24 4.2108e+06
-15.88141 -1.090288 -24 4.2108e+06
-15.90829 -0.7141817 -24 4.2108e+06
-15.93533 -0.3368831 -24 4.2108e+06
-15.96238 0.04162216 -24 4.2108e+06
-15.98959 0.4213347 -24 4.2108e+06
-16.01682 0.8022622 -24 4.2108e+06
-16.0442 1.184412 -24 4.2108e+06
-16.07161 1.567786 -24 4.2108e+06
-15.11418 -2.953028 -24 4.2108e+06
-15.1397 -2.582835 -24 4.2108e+06
-15.16525 -2.211461 -24 4.2108e+06
-15.19093 -1.838923 -24 4.2108e+06
-15.21664 -1.465194 -24 4.2108e+06
-15.24249 -1.090288 -24 4.2108e+06
-15.26836 -0.7141817 -24 4.2108e+06
-15.29437 -0.3368831 -24 4.2108e+06
-15.32041 0.04162204 -24 4.2108e+06
-15.34659 0.4213347 -24 4.2108e+06
-15.37279 0.8022622 -24 4.2108e+06
-15.39914 1.184412 -24 4.2108e+06
-15.42551 1.567786 -24 4.2108e+06
-15.45203 1.952397 -24 4.2108e+06
-15.47856 2.33824 -24 4.2108e+06
-15.50525 2.725335 -24 4.2108e+06
-15.53197 3.113673 -24 4.2108e+06
-15.55883 3.503276 -24 4.2108e+06
-15.58571 3.894132 -24 4.2108e+06
-15.61275 4.286269 -24 4.2108e+06
-15.63981 4.67967 -24 4.2108e+06
-15.66702 5.074364 -24 4.2108e+06
-15.69426 5.470329 -24 4.2108e+06
-15.72165 5.867607 -24 4.2108e+06
-15.74906 6.266166 -24 4.2108e+06
-15.77664 6.666053 -24 4.2108e+06
-14.48029 -2.953028 -24 4.2108e+06
-14.50481 -2.582835 -24 4.2108e+06
-14.52936 -2.211461 -24 4.2108e+06
-14.55403 -1.838923 -24 4.2108e+06
-14.57873 -1.465194 -24 4.2108e+06
-14.60357 -1.090288 -24 4.2108e+06
-14.62842 -0.7141817 -24 4.2108e+06
-14.65342 -0.3368831 -24 4.2108e+06
-14.67843 0.04162204 -24 4.2108e+06
-14.70358 0.4213347 -24 4.2108e+06
-14.72876 0.8022622 -24 4.2108e+06
-14.75407 1.184412 -24 4.2108e+06
-14.77941 1.567786 -24 4.2108e+06
-14.80489 1.952397 -24 4.2108e+06
-14.83039 2.33824 -24 4.2108e+06
-14.85603 2.725335 -24 4.2108e+06
-14.88169 3.113673 -24 4.2108e+06
-14.9075 3.503276 -24 4.2108e+06
-14.93333 3.894132 -24 4.2108e+06
-14.95931 4.286269 -24 4.2108e+06
-14.98531 4.679669 -24 4.2108e+06
-15.01145 5.074364 -24 4.2108e+06
-15.03762 5.47033 -24 4.2108e+06
-15.06394 5.867608 -24 4.2108e+06
-15.09028 6.266167 -24 4.2108e+06
-15.11677 6.666052 -24 4.2108e+06
-13.8464 -2.953028 -24 4.2108e+06
-13.86992 -2.582835 -24 4.2108e+06
-13.89346 -2.211461 -24 4.2108e+06
-13.91713 -1.838922 -24 4.2108e+06
-13.94082 -1.465194 -24 4.2108e+06
-13.96465 -1.090288 -24 4.2108e+06
-13.98849 -0.7141817 -24 4.2108e+06
-14.01246 -0.3368828 -24 4.2108e+06
-14.03646 0.04162204 -24 4.2108e+06
-14.06058 0.4213347 -24 4.2108e+06
-14.08473 0.8022622 -24 4.2108e+06
-14.10901 1.184412 -24 4.2108e+06
-14.13331 1.567786 -24 4.2108e+06
-14.15775 1.952397 -24 4.2108e+06
-14.18221 2.33824 -24 4.2108e+06
-14.2068 2.725335 -24 4.2108e+06
-14.23142 3.113673 -24 4.2108e+06
-14.25617 3.503276 -24 4.2108e+06
-14.28095 3.894132 -24 4.2108e+06
-14.30587 4.286269 -24 4.2108e+06
-14.3308 4.67967 -24 4.2108e+06
-14.35588 5.074364 -24 4.2108e+06
-14.38098 5.47033 -24 4.2108e+06
-14.40623 5.867608 -24 4.2108e+06
-14.43149 6.266166 -24 4.2108e+06
-14.4569 6.666054 -24 4.2108e+06
-13.21251 -2.953028 -24 4.2108e+06
-13.23503 -2.582835 -24 4.2108e+06
-13.25757 -2.211461 -24 4.2108e+06
-13.28024 -1.838922 -24 4.2108e+06
-13.30292 -1.465194 -24 4.2108e+06
-13.32572 -1.090288 -24 4.2108e+06
-13.34855 -0.7141817 -24 4.2108e+06
-13.37151 -0.3368831 -24 4.2108e+06
-13.39448 0.04162204 -24 4.2108e+06
-13.41758 0.4213347 -24 4.2108e+06
-13.4407 0.8022622 -24 4.2108e+06
-13.46394 1.184412 -24 4.2108e+06
-13.48721 1.567786 -24 4.2108e+06
-13.51061 1.952397 -24 4.2108e+06
-13.53403 2.33824 -24 4.2108e+06
-13.55758 2.725335 -24 4.2108e+06
-13.58115 3.113673 -24 4.2108e+06
-13.60485 3.503276 -24 4.2108e+06
-13.62857 3.894132 -24 4.2108e+06
-13.65242 4.286269 -24 4.2108e+06
-13.6763 4.67967 -24 4.2108e+06
-13.70031 5.074364 -24 4.2108e+06
-13.72435 5.470329 -24 4.2108e+06
-13.74851 5.867608 -24 4.2108e+06
-13.7727 6.266166 -24 4.2108e+06
-13.79703 6.666053 -24 4.2108e+06
-12.57862 -2.953028 -24 4.2108e+06
-12.60014 -2.582835 -24 4.2108e+06
-12.62168 -2.211461 -24 4.2108e+06
-12.64334 -1.838922 -24 4.2108e+06
-12.66501 -1.465194 -24 4.2108e+06
-12.6868 -1.090287 -24 4.2108e+06
-12.70862 -0.7141819 -24 4.2108e+06
-12.73055 -0.3368833 -24 4.2108e+06
-12.7525 0.04162204 -24 4.2108e+06
-12.77457 0.4213347 -24 4.2108e+06
-12.79666 0.8022622 -24 4.2108e+06
-12.81888 1.184412 -24 4.2108e+06
-12.84111 1.567786 -24 4.2108e+06
-12.86347 1.952397 -24 4.2108e+06
-12.88585 2.33824 -24 4.2108e+06
-12.90835 2.725335 -24 4.2108e+06
-12.93087 3.113673 -24 4.2108e+06
-12.95352 3.503276 -24 4.2108e+06
-12.97619 3.894132 -24 4.2108e+06
-12.99898 4.286269 -24 4.2108e+06
-13.0218 4.67967 -24 4.2108e+06
-13.04474 5.074364 -24 4.2108e+06
-13.06771 5.47033 -24 4.2108e+06
-13.0908 5.867608 -24 4.2108e+06
-13.11392 6.266166 -24 4.2108e+06
-13.13716 6.666053 -24 4.2108e+06
-11.94473 -2.953028 -24 4.2108e+06
-11.96525 -2.582835 -24 4.2108e+06
-11.98579 -2.211461 -24 4.2108e+06
-12.00644 -1.838922 -24 4.2108e+06
-12.0271 -1.465194 -24 4.2108e+06
-12.04788 -1.090288 -24 4.2108e+06
-12.06868 -0.7141817 -24 4.2108e+06
-12.08959 -0.3368828 -24 4.2108e+06
-12.11052 0.04162216 -24 4.2108e+06
-12.13157 0.4213347 -24 4.2108e+06
-12.15264 0.8022622 -24 4.2108e+06
-12.17382 1.184412 -24 4.2108e+06
-12.19502 1.567786 -24 4.2108e+06
-12.21633 1.952397 -24 4.2108e+06
-12.23767 2.33824 -24 4.2108e+06
-12.25912 2.725335 -24 4.2108e+06
-12.2806 3.113673 -24 4.2108e+06
-12.3022 3.503276 -24 4.2108e+06
-12.32381 3.894132 -24 4.2108e+06
-12.34554 4.286269 -24 4.2108e+06
-12.3673 4.67967 -24 4.2108e+06
-12.38918 5.074364 -24 4.2108e+06
-12.41107 5.470329 -24 4.2108e+06
-12.43309 5.867607 -24 4.2108e+06
-12.45513 6.266167 -24 4.2108e+06
-12.47729 6.666052 -24 4.2108e+06
-11.31084 -2.953028 -24 4.2108e+06
-11.33036 -2.582835 -24 4.2108e+06
-11.34989 -2.211461 -24 4.2108e+06
-11.36954 -1.838922 -24 4.2108e+06
-11.3892 -1.465194 -24 4.2108e+06
-11.40896 -1.090288 -24 4.2108e+06
-11.42875 -0.7141817 -24 4.2108e+06
-11.44864 -0.3368828 -24 4.2108e+06
-11.46855 0.04162216 -24 4.2108e+06
-11.48857 0.4213347 -24 4.2108e+06
-11.5086 0.8022622 -24 4.2108e+06
-11.52875 1.184412 -24 4.2108e+06
-11.54892 1.567786 -24 4.2108e+06
-11.5692 1.952397 -24 4.2108e+06
-11.58949 2.33824 -24 4.2108e+06
-11.6099 2.725335 -24 4.2108e+06
-11.63033 3.113673 -24 4.2108e+06
-11.65087 3.503276 -24 4.2108e+06
-11.67143 3.894132 -24 4.2108e+06
-11.6921 4.286269 -24 4.2108e+06
-11.7128 4.67967 -24 4.2108e+06
-11.73361 5.074364 -24 4.2108e+06
-11.75443 5.47033 -24 4.2108e+06
-11.77538 5.867608 -24 4.2108e+06
-11.79634 6.266166 -24 4.2108e+06
-11.81743 6.666053 -24 4.2108e+06
-10.67695 -2.953028 -24 4.2108e+06
-10.69547 -2.582835 -24 4.2108e+06
-10.714 -2.211461 -24 4.2108e+06
-10.73264 -1.838922 -24 4.2108e+06
-10.75129 -1.465194 -24 4.2108e+06
-10.77004 -1.090288 -24 4.2108e+06
-10.78881 -0.7141817 -24 4.2108e+06
-10.80768 -0.3368828 -24 4.2108e+06
-10.82657 0.04162216 -24 4.2108e+06
-10.84556 0.4213347 -24 4.2108e+06
-10.86457 0.8022622 -24 4.2108e+06
-10.88369 1.184412 -24 4.2108e+06
-10.90282 1.567786 -24 4.2108e+06
-10.92206 1.952397 -24 4.2108e+06
-10.94131 2.33824 -24 4.2108e+06
-10.96067 2.725335 -24 4.2108e+06
-10.98005 3.113673 -24 4.2108e+06
-10.99954 3.503276 -24 4.2108e+06
-11.01905 3.894132 -24 4.2108e+06
-11.03866 4.286269 -24 4.2108e+06
-11.05829 4.67967 -24 4.2108e+06
-11.07804 5.074364 -24 4.2108e+06
-11.09779 5.470329 -24 4.2108e+06
-11.11767 5.867608 -24 4.2108e+06
-11.13756 6.266167 -24 4.2108e+06
-11.15756 6.666053 -24 4.2108e+06
-10.04306 -2.953028 -24 4.2108e+06
-10.06058 -2.582835 -24 4.2108e+06
-10.07811 -2.211461 -24 4.2108e+06
-10.09574 -1.838922 -24 4.2108e+06
-10.11338 -1.465194 -24 4.2108e+06
-10.13112 -1.090288 -24 4.2108e+06
-10.14887 -0.7141817 -24 4.2108e+06
-10.16673 -0.3368831 -24 4.2108e+06
-10.18459 0.04162204 -24 4.2108e+06
-10.20256 0.4213347 -24 4.2108e+06
-10.22054 0.8022622 -24 4.2108e+06
-10.23862 1.184412 -24 4.2108e+06
-10.25672 1.567786 -24 4.2108e+06
-10.27492 1.952397 -24 4.2108e+06
-10.29313 2.33824 -24 4.2108e+06
-10.31145 2.725335 -24 4.2108e+06
-10.32978 3.113673 -24 4.2108e+06
-10.34822 3.503276 -24 4.2108e+06
-10.36667 3.894132 -24 4.2108e+06
-10.38522 4.286269 -24 4.2108e+06
-10.40379 4.679669 -24 4.2108e+06
-10.42247 5.074364 -24 4.2108e+06
-10.44116 5.47033 -24 4.2108e+06
-10.45996 5.867608 -24 4.2108e+06
-10.47877 6.266166 -24 4.2108e+06
-10.49769 6.666053 -24 4.2108e+06
-9.409175 -2.953028 -24 4.2108e+06
-9.425691 -2.582835 -24 4.2108e+06
-9.442219 -2.211461 -24 4.2108e+06
-9.458839 -1.838922 -24 4.2108e+06
-9.475472 -1.465194 -24 4.2108e+06
-9.492198 -1.090288 -24 4.2108e+06
-9.508938 -0.7141817 -24 4.2108e+06
-9.525771 -0.3368831 -24 4.2108e+06
-9.542617 0.04162204 -24 4.2108e+06
-9.559556 0.4213347 -24 4.2108e+06
-9.57651 0.8022622 -24 4.2108e+06
-9.59356 1.184412 -24 4.2108e+06
-9.610622 1.567786 -24 4.2108e+06
-9.627781 1.952397 -24 4.2108e+06
-9.644954 2.33824 -24 4.2108e+06
-9.662224 2.725335 -24 4.2108e+06
-9.679507 3.113673 -24 4.2108e+06
-9.69689 3.503276 -24 4.2108e+06
-9.714285 3.894132 -24 4.2108e+06
-9.731779 4.286269 -24 4.2108e+06
-9.749288 4.679669 -24 4.2108e+06
-9.766897 5.074364 -24 4.2108e+06
-9.784521 5.47033 -24 4.2108e+06
-9.802244 5.867608 -24 4.2108e+06
-9.819983 6.266166 -24 4.2108e+06
-9.837824 6.666053 -24 4.2108e+06
-8.775285 -2.953028 -24 4.2108e+06
-8.7908 -2.582835 -24 4.2108e+06
-8.806326 -2.211461 -24 4.2108e+06
-8.821939 -1.838922 -24 4.2108e+06
-8.837564 -1.465194 -24 4.2108e+06
-8.853277 -1.090288 -24 4.2108e+06
-8.869002 -0.7141817 -24 4.2108e+06
-8.884814 -0.3368828 -24 4.2108e+06
-8.900639 0.04162216 -24 4.2108e+06
-8.916553 0.4213347 -24 4.2108e+06
-8.93248 0.8022622 -24 4.2108e+06
-8.948495 1.184412 -24 4.2108e+06
-8.964524 1.567786 -24 4.2108e+06
-8.980642 1.952397 -24 4.2108e+06
-8.996776 2.33824 -24 4.2108e+06
-9.012998 2.725335 -24 4.2108e+06
-9.029234 3.113673 -24 4.2108e+06
-9.045562 3.503276 -24 4.2108e+06
-9.061904 3.894132 -24 4.2108e+06
-9.078339 4.286269 -24 4.2108e+06
-9.094786 4.67967 -24 4.2108e+06
-9.111327 5.074364 -24 4.2108e+06
-9.127882 5.470329 -24 4.2108e+06
-9.144532 5.867608 -24 4.2108e+06
-9.161197 6.266166 -24 4.2108e+06
-9.177955 6.666052 -24 4.2108e+06
-8.141396 -2.953027 -24 4.2108e+06
-8.15591 -2.582835 -24 4.2108e+06
-8.170435 -2.211461 -24 4.2108e+06
-8.18504 -1.838922 -24 4.2108e+06
-8.199657 -1.465194 -24 4.2108e+06
-8.214355 -1.090288 -24 4.2108e+06
-8.229066 -0.7141817 -24 4.2108e+06
-8.243858 -0.3368831 -24 4.2108e+06
-8.258662 0.04162216 -24 4.2108e+06
-8.273549 0.4213347 -24 4.2108e+06
-8.288449 0.8022622 -24 4.2108e+06
-8.303432 1.184412 -24 4.2108e+06
-8.318425 1.567786 -24 4.2108e+06
-8.333504 1.952397 -24 4.2108e+06
-8.348597 2.33824 -24 4.2108e+06
-8.363772 2.725335 -24 4.2108e+06
-8.378962 3.113673 -24 4.2108e+06
-8.394236 3.503276 -24 4.2108e+06
-8.409523 3.894132 -24 4.2108e+06
-8.424896 4.286269 -24 4.2108e+06
-8.440283 4.67967 -24 4.2108e+06
-8.455758 5.074364 -24 4.2108e+06
-8.471245 5.47033 -24 4.2108e+06
-8.48682 5.867608 -24 4.2108e+06
-8.502409 6.266166 -24 4.2108e+06
-8.518086 6.666053 -24 4.2108e+06
-8.090418 -2.802252 -23.46389 4.2108e+06
-8.090418 -2.401283 -23.47744 4.2108e+06
-8.090418 -2.000311 -23.49103 4.2108e+06
-8.090418 -1.599341 -23.50459 4.2108e+06
-8.090418 -1.198371 -23.51818 4.2108e+06
-8.090418 -0.7974002 -23.53174 4.2108e+06
-8.090418 -0.3964291 -23.54533 4.2108e+06
-8.090418 0.004541159 -23.55888 4.2108e+06
-8.090418 0.4055123 -23.57248 4.2108e+06
-8.090418 0.806482 -23.58603 4.2108e+06
-8.090418 1.207453 -23.59962 4.2108e+06
-8.090418 1.608423 -23.61318 4.2108e+06
-8.090418 2.009394 -23.62677 4.2108e+06
-8.090418 2.410364 -23.64033 4.2108e+06
-8.090418 2.811334 -23.65392 4.2108e+06
-8.090418 3.212306 -23.66747 4.2108e+06
-8.090418 3.613275 -23.68106 4.2108e+06
-8.090418 4.014246 -23.69462 4.2108e+06
-8.090418 4.415215 -23.70821 4.2108e+06
-8.090418 4.81619 -23.72177 4.2108e+06
-8.090418 5.217158 -23.73536 4.2108e+06
-8.090418 5.61813 -23.74891 4.2108e+06
-8.090418 6.0191 -23.7625 4.2108e+06
-8.090418 6.42007 -23.77606 4.2108e+06
-8.090418 -3.084033 -22.77539 4.2108e+06
-8.090418 -2.650985 -22.79004 4.2108e+06
-8.090418 -2.217936 -22.80471 4.2108e+06
-8.090418 -1.784889 -22.81936 4.2108e+06
-8.090418 -1.351841 -22.83403 4.2108e+06
-8.090418 -0.9187925 -22.84867 4.2108e+06
-8.090418 -0.4857435 -22.86335 4.2108e+06
-8.090418 -0.05269563 -22.87799 4.2108e+06
-8.090418 0.3803532 -22.89267 4.2108e+06
-8.090418 0.8134006 -22.90731 4.2108e+06
-8.090418 1.246449 -22.92199 4.2108e+06
-8.090418 1.679497 -22.93663 4.2108e+06
-8.090418 2.112546 -22.95131 4.2108e+06
-8.090418 2.545594 -22.96595 4.2108e+06
-8.090418 2.978641 -22.98063 4.2108e+06
-8.090418 3.41169 -22.99527 4.2108e+06
-8.090418 3.844737 -23.00995 4.2108e+06
-8.090418 4.277786 -23.02459 4.2108e+06
-8.090418 4.710834 -23.03926 4.2108e+06
-8.090418 5.143886 -23.05391 4.2108e+06
-8.090418 5.576932 -23.06858 4.2108e+06
-8.090418 6.009981 -23.08323 4.2108e+06
-8.090418 6.443028 -23.0979 4.2108e+06
-8.090418 -2.944114 -21.98309 4.2108e+06
-8.090418 -2.473409 -21.99904 4.2108e+06
-8.090418 -2.002705 -22.01495 4.2108e+06
-8.090418 -1.532001 -22.03091 4.2108e+06
-8.090418 -1.061296 -22.04682 4.2108e+06
-8.090418 -0.5905907 -22.06277 4.2108e+06
-8.090418 -0.1198866 -22.07869 4.2108e+06
-8.090418 0.3508188 -22.09464 4.2108e+06
-8.090418 0.8215224 -22.11056 4.2108e+06
-8.090418 1.292228 -22.12651 4.2108e+06
-8.090418 1.762931 -22.14243 4.2108e+06
-8.090418 2.233637 -22.15838 4.2108e+06
-8.090418 2.704341 -22.17429 4.2108e+06
-8.090418 3.175045 -22.19025 4.2108e+06
-8.090418 3.645751 -22.20616 4.2108e+06
-8.090418 4.116453 -22.22212 4.2108e+06
-8.090418 4.587159 -22.23803 4.2108e+06
-8.090418 5.057863 -22.25398 4.2108e+06
-8.090418 5.52857 -22.2699 4.2108e+06
-8.090418 5.999274 -22.28585 4.2108e+06
-8.090418 6.469979 -22.30177 4.2108e+06
-8.090418 -2.777543 -21.0399 4.2108e+06
-8.090418 -2.262011 -21.05733 4.2108e+06
-8.090418 -1.746478 -21.0748 4.2108e+06
-8.090418 -1.230943 -21.09223 4.2108e+06
-8.090418 -0.715409 -21.1097 4.2108e+06
-8.090418 -0.1998758 -21.12714 4.2108e+06
-8.090418 0.3156587 -21.14461 4.2108e+06
-8.090418 0.8311912 -21.16204 4.2108e+06
-8.090418 1.346726 -21.17951 4.2108e+06
-8.090418 1.862258 -21.19694 4.2108e+06
-8.090418 2.377792 -21.21442 4.2108e+06
-8.090418 2.893326 -21.23185 4.2108e+06
-8.090418 3.408859 -21.24932 4.2108e+06
-8.090418 3.924393 -21.26675 4.2108e+06
-8.090418 4.439925 -21.28422 4.2108e+06
-8.090418 4.95546 -21.30165 4.2108e+06
-8.090418 5.470993 -21.31913 4.2108e+06
-8.090418 5.98653 -21.33656 4.2108e+06
-8.090418 6.502062 -21.35403 4.2108e+06
-8.090418 -3.145705 -19.87883 4.2108e+06
-8.090418 -2.575906 -19.8981 4.2108e+06
-8.090418 -2.006107 -19.91741 4.2108e+06
-8.090418 -1.436306 -19.93668 4.2108e+06
-8.090418 -0.8665044 -19.95599 4.2108e+06
-8.090418 -0.296705 -19.97525 4.2108e+06
-8.090418 0.2730964 -19.99457 4.2108e+06
-8.090418 0.8428955 -20.01383 4.2108e+06
-8.090418 1.412697 -20.03314 4.2108e+06
-8.090418 1.982496 -20.05241 4.2108e+06
-8.090418 2.552297 -20.07172 4.2108e+06
-8.090418 3.122097 -20.09099 4.2108e+06
-8.090418 3.691897 -20.1103 4.2108e+06
-8.090418 4.261698 -20.12957 4.2108e+06
-8.090418 4.831496 -20.14888 4.2108e+06
-8.090418 5.401298 -20.16814 4.2108e+06
-8.090418 5.971097 -20.18745 4.2108e+06
-8.090418 6.540901 -20.20672 4.2108e+06
-8.090418 -2.96366 -18.46611 4.2108e+06
-8.090418 -2.326825 -18.4877 4.2108e+06
-8.090418 -1.689989 -18.50923 4.2108e+06
-8.090418 -1.053152 -18.53081 4.2108e+06
-8.090418 -0.4163172 -18.55234 4.2108e+06
-8.090418 0.2205195 -18.57393 4.2108e+06
-8.090418 0.8573538 -18.59546 4.2108e+06
-8.090418 1.494191 -18.61704 4.2108e+06
-8.090418 2.131025 -18.63858 4.2108e+06
-8.090418 2.767862 -18.66016 4.2108e+06
-8.090418 3.404697 -18.68169 4.2108e+06
-8.090418 4.041532 -18.70327 4.2108e+06
-8.090418 4.678369 -18.72481 4.2108e+06
-8.090418 5.315202 -18.74639 4.2108e+06
-8.090418 5.952039 -18.76792 4.2108e+06
-8.090418 6.588874 -18.78951 4.2108e+06
