VERSION 0.7
FIELDS x y z rgb
SIZE 4 4 4 4
TYPE F F F F
COUNT 1 1 1 1
WIDTH 110
HEIGHT 1
VIEWPOINT 0 0 0 1 0 0 0
POINTS 110
DATA ascii 
-8.391611 9.729532 -4.446941 4.2108e+06
-7.893971 9.729532 -4.945082 4.2108e+06
-7.637176 9.961707 -5.21 4.2108e+06
-7.656528 10.53404 -5.21 4.2108e+06
-7.675995 11.10971 -5.21 4.2108e+06
-7.695575 11.68874 -5.21 4.2108e+06
-7.715277 12.27117 -5.21 4.2108e+06
-7.735086 12.85701 -5.21 4.2108e+06
-7.755013 13.44631 -5.21 4.2108e+06
-7.775058 14.03909 -5.21 4.2108e+06
-7.795229 14.63539 -5.21 4.2108e+06
-7.815512 15.23522 -5.21 4.2108e+06
-7.835916 15.83863 -5.21 4.2108e+06
-7.856449 16.44566 -5.21 4.2108e+06
-7.877098 17.05632 -5.21 4.2108e+06
-7.897872 17.67065 -5.21 4.2108e+06
-8.0616 9.729532 -3.199787 4.2108e+06
-7.512443 9.729532 -3.871654 4.2108e+06
-7.042225 9.729532 -4.446942 4.2108e+06
-6.635066 9.729532 -4.94508 4.2108e+06
-6.42496 9.961707 -5.21 4.2108e+06
-6.440794 10.53404 -5.21 4.2108e+06
-6.456721 11.10971 -5.21 4.2108e+06
-6.472741 11.68874 -5.21 4.2108e+06
-6.48886 12.27117 -5.21 4.2108e+06
-6.505069 12.85701 -5.21 4.2108e+06
-6.521373 13.44631 -5.21 4.2108e+06
-6.537772 14.03909 -5.21 4.2108e+06
-6.554276 14.63539 -5.21 4.2108e+06
-6.570871 15.23522 -5.21 4.2108e+06
-6.587564 15.83863 -5.21 4.2108e+06
-6.604365 16.44566 -5.21 4.2108e+06
-6.621261 17.05632 -5.21 4.2108e+06
-6.638257 17.67065 -5.21 4.2108e+06
-6.991082 9.729532 -2.404792 4.2108e+06
-6.48569 9.729532 -3.199787 4.2108e+06
-6.058567 9.729532 -3.871654 4.2108e+06
-5.692842 9.729532 -4.446942 4.2108e+06
-5.376163 9.729532 -4.94508 4.2108e+06
-5.212748 9.961707 -5.21 4.2108e+06
-5.225063 10.53404 -5.21 4.2108e+06
-5.237451 11.10971 -5.21 4.2108e+06
-5.24991 11.68874 -5.21 4.2108e+06
-5.262447 12.27117 -5.21 4.2108e+06
-5.275054 12.85701 -5.21 4.2108e+06
-5.287735 13.44631 -5.21 4.2108e+06
-5.30049 14.03909 -5.21 4.2108e+06
-5.313326 14.63539 -5.21 4.2108e+06
-5.326234 15.23522 -5.21 4.2108e+06
-5.339217 15.83863 -5.21 4.2108e+06
-5.352284 16.44566 -5.21 4.2108e+06
-5.365425 17.05632 -5.21 4.2108e+06
-5.378645 17.67065 -5.21 4.2108e+06
-5.270774 9.729532 -2.404792 4.2108e+06
-4.909779 9.729532 -3.199788 4.2108e+06
-4.604692 9.729532 -3.871654 4.2108e+06
-4.343459 9.729532 -4.446942 4.2108e+06
-4.11726 9.729532 -4.945081 4.2108e+06
-4.000534 9.961707 -5.21 4.2108e+06
-4.009331 10.53404 -5.21 4.2108e+06
-4.01818 11.10971 -5.21 4.2108e+06
-4.02708 11.68874 -5.21 4.2108e+06
-4.036035 12.27117 -5.21 4.2108e+06
-4.045039 12.85701 -5.21 4.2108e+06
-4.054097 13.44631 -5.21 4.2108e+06
-4.063208 14.03909 -5.21 4.2108e+06
-4.072376 14.63539 -5.21 4.2108e+06
-4.081596 15.23522 -5.21 4.2108e+06
-4.09087 15.83863 -5.21 4.2108e+06
-4.100204 16.44566 -5.21 4.2108e+06
-4.10959 17.05632 -5.21 4.2108e+06
-4.119033 17.67065 -5.21 4.2108e+06
-3.550463 9.729532 -2.404792 4.2108e+06
-3.333867 9.729532 -3.199787 4.2108e+06
-3.150814 9.729532 -3.871654 4.2108e+06
-2.994075 9.729532 -4.446942 4.2108e+06
-2.858355 9.729532 -4.945081 4.2108e+06
-2.78832 9.961707 -5.21 4.2108e+06
-2.793598 10.53404 -5.21 4.2108e+06
-2.798907 11.10971 -5.21 4.2108e+06
-2.804247 11.68874 -5.21 4.2108e+06
-2.80962 12.27117 -5.21 4.2108e+06
-2.815023 12.85701 -5.21 4.2108e+06
-2.820457 13.44631 -5.21 4.2108e+06
-2.825924 14.03909 -5.21 4.2108e+06
-2.831425 14.63539 -5.21 4.2108e+06
-2.836957 15.23522 -5.21 4.2108e+06
-2.842522 15.83863 -5.21 4.2108e+06
-2.848122 16.44566 -5.21 4.2108e+06
-2.853753 17.05632 -5.21 4.2108e+06
-2.859419 17.67065 -5.21 4.2108e+06
-1.830153 9.729532 -2.404792 4.2108e+06
-1.757954 9.729532 -3.199787 4.2108e+06
-1.696937 9.729532 -3.871654 4.2108e+06
-1.644691 9.729532 -4.446942 4.2108e+06
-1.599451 9.729532 -4.945081 4.2108e+06
-1.576106 9.961708 -5.21 4.2108e+06
-1.577865 10.53404 -5.21 4.2108e+06
-1.579635 11.10971 -5.21 4.2108e+06
-1.581415 11.68874 -5.21 4.2108e+06
-1.583206 12.27117 -5.21 4.2108e+06
-1.585006 12.85701 -5.21 4.2108e+06
-1.586818 13.44631 -5.21 4.2108e+06
-1.58864 14.03909 -5.21 4.2108e+06
-1.590474 14.63539 -5.21 4.2108e+06
-1.592318 15.23522 -5.21 4.2108e+06
-1.594173 15.83863 -5.21 4.2108e+06
-1.59604 16.44566 -5.21 4.2108e+06
-1.597917 17.05632 -5.21 4.2108e+06
-1.599805 17.67065 -5.21 4.2108e+06
