VERSION 0.7
FIELDS x y z rgb
SIZE 4 4 4 4
TYPE F F F F
COUNT 1 1 1 1
WIDTH 133
HEIGHT 1
VIEWPOINT 0 0 0 1 0 0 0
POINTS 133
DATA ascii 
-19.12854 3.343418 -5.21 4.2108e+06
-19.1795 3.877924 -5.21 4.2108e+06
-19.23072 4.415436 -5.21 4.2108e+06
-19.28223 4.955978 -5.21 4.2108e+06
-19.33403 5.49958 -5.21 4.2108e+06
-17.95702 3.343418 -5.21 4.2108e+06
-18.00469 3.877924 -5.21 4.2108e+06
-18.05261 4.415436 -5.21 4.2108e+06
-18.1008 4.955978 -5.21 4.2108e+06
-18.14926 5.49958 -5.21 4.2108e+06
-18.19801 6.046273 -5.21 4.2108e+06
-18.24702 6.596068 -5.21 4.2108e+06
-18.29632 7.149003 -5.21 4.2108e+06
-18.34591 7.705107 -5.21 4.2108e+06
-18.39577 8.2644 -5.21 4.2108e+06
-18.44592 8.82691 -5.21 4.2108e+06
-18.49635 9.392667 -5.21 4.2108e+06
-18.5471 9.961707 -5.21 4.2108e+06
-18.59812 10.53404 -5.21 4.2108e+06
-18.3722 2.970298 -4.550289 4.2108e+06
-16.78551 3.343418 -5.21 4.2108e+06
-16.82989 3.877924 -5.21 4.2108e+06
-16.8745 4.415436 -5.21 4.2108e+06
-16.91936 4.955978 -5.21 4.2108e+06
-16.96448 5.49958 -5.21 4.2108e+06
-17.00987 6.046272 -5.21 4.2108e+06
-17.05551 6.596068 -5.21 4.2108e+06
-17.1014 7.149003 -5.21 4.2108e+06
-17.14757 7.705107 -5.21 4.2108e+06
-17.19399 8.2644 -5.21 4.2108e+06
-17.24068 8.82691 -5.21 4.2108e+06
-17.28764 9.392667 -5.21 4.2108e+06
-17.33488 9.961707 -5.21 4.2108e+06
-17.38239 10.53404 -5.21 4.2108e+06
-17.08315 2.970298 -4.550288 4.2108e+06
-15.61399 3.343418 -5.21 4.2108e+06
-15.65508 3.877924 -5.21 4.2108e+06
-15.69639 4.415436 -5.21 4.2108e+06
-15.73793 4.955978 -5.21 4.2108e+06
-15.7797 5.49958 -5.21 4.2108e+06
-15.82173 6.046272 -5.21 4.2108e+06
-15.86399 6.596068 -5.21 4.2108e+06
-15.90648 7.149004 -5.21 4.2108e+06
-15.94923 7.705108 -5.21 4.2108e+06
-15.99221 8.2644 -5.21 4.2108e+06
-16.03544 8.82691 -5.21 4.2108e+06
-16.07892 9.392667 -5.21 4.2108e+06
-16.12267 9.961708 -5.21 4.2108e+06
-16.16666 10.53404 -5.21 4.2108e+06
-15.7941 2.970298 -4.550288 4.2108e+06
-14.44247 3.343418 -5.21 4.2108e+06
-14.48027 3.877924 -5.21 4.2108e+06
-14.51828 4.415436 -5.21 4.2108e+06
-14.5565 4.955978 -5.21 4.2108e+06
-14.59493 5.49958 -5.21 4.2108e+06
-14.6336 6.046272 -5.21 4.2108e+06
-14.67247 6.596068 -5.21 4.2108e+06
-14.71156 7.149004 -5.21 4.2108e+06
-14.7509 7.705108 -5.21 4.2108e+06
-14.79044 8.2644 -5.21 4.2108e+06
-14.83021 8.82691 -5.21 4.2108e+06
-14.87021 9.392667 -5.21 4.2108e+06
-14.91046 9.961707 -5.21 4.2108e+06
-14.95092 10.53404 -5.21 4.2108e+06
-14.50504 2.970298 -4.550288 4.2108e+06
-13.27095 3.343418 -5.21 4.2108e+06
-13.30547 3.877924 -5.21 4.2108e+06
-13.34017 4.415436 -5.21 4.2108e+06
-13.37506 4.955978 -5.21 4.2108e+06
-13.41015 5.49958 -5.21 4.2108e+06
-13.44546 6.046272 -5.21 4.2108e+06
-13.48095 6.596068 -5.21 4.2108e+06
-13.51664 7.149004 -5.21 4.2108e+06
-13.55256 7.705107 -5.21 4.2108e+06
-13.58866 8.2644 -5.21 4.2108e+06
-13.62497 8.82691 -5.21 4.2108e+06
-13.6615 9.392667 -5.21 4.2108e+06
-13.69824 9.961707 -5.21 4.2108e+06
-13.73519 10.53404 -5.21 4.2108e+06
-13.21599 2.970298 -4.550288 4.2108e+06
-12.09943 3.343418 -5.21 4.2108e+06
-12.13066 3.877924 -5.21 4.2108e+06
-12.16206 4.415436 -5.21 4.2108e+06
-12.19363 4.955978 -5.21 4.2108e+06
-12.22538 5.49958 -5.21 4.2108e+06
-12.25732 6.046272 -5.21 4.2108e+06
-12.28943 6.596069 -5.21 4.2108e+06
-12.32173 7.149003 -5.21 4.2108e+06
-12.35422 7.705107 -5.21 4.2108e+06
-12.38688 8.2644 -5.21 4.2108e+06
-12.41974 8.82691 -5.21 4.2108e+06
-12.45278 9.392667 -5.21 4.2108e+06
-12.48603 9.961708 -5.21 4.2108e+06
-12.51946 10.53404 -5.21 4.2108e+06
-11.92694 2.970298 -4.550288 4.2108e+06
-11.35988 3.432927 -4.933241 4.2108e+06
-11.35988 3.983035 -4.951868 4.2108e+06
-11.35988 4.533143 -4.970488 4.2108e+06
-11.35988 5.083249 -4.989109 4.2108e+06
-11.35988 5.633358 -5.007729 4.2108e+06
-11.35988 6.183466 -5.026356 4.2108e+06
-11.35988 6.733572 -5.044977 4.2108e+06
-11.35988 7.28368 -5.063597 4.2108e+06
-11.35988 7.833786 -5.082224 4.2108e+06
-11.35988 8.383896 -5.100844 4.2108e+06
-11.35988 8.934004 -5.119464 4.2108e+06
-11.35988 9.484113 -5.138085 4.2108e+06
-11.35988 10.03422 -5.156712 4.2108e+06
-11.35988 10.58432 -5.175333 4.2108e+06
-11.35988 3.096528 -4.02457 4.2108e+06
-11.35988 3.719985 -4.045672 4.2108e+06
-11.35988 4.34344 -4.066783 4.2108e+06
-11.35988 4.966896 -4.087886 4.2108e+06
-11.35988 5.59035 -4.108989 4.2108e+06
-11.35988 6.213806 -4.130093 4.2108e+06
-11.35988 6.837262 -4.151203 4.2108e+06
-11.35988 7.460716 -4.172306 4.2108e+06
-11.35988 8.084171 -4.193409 4.2108e+06
-11.35988 8.707625 -4.21452 4.2108e+06
-11.35988 9.331083 -4.235622 4.2108e+06
-11.35988 9.954538 -4.256726 4.2108e+06
-11.35988 10.578 -4.277829 4.2108e+06
-11.35988 3.375993 -2.860658 4.2108e+06
-11.35988 4.095366 -2.885008 4.2108e+06
-11.35988 4.814738 -2.909367 4.2108e+06
-11.35988 5.53411 -2.933716 4.2108e+06
-11.35988 6.253479 -2.958065 4.2108e+06
-11.35988 6.972851 -2.982415 4.2108e+06
-11.35988 7.692224 -3.006774 4.2108e+06
-11.35988 8.411594 -3.031124 4.2108e+06
-11.35988 9.130966 -3.055473 4.2108e+06
-11.35988 9.850337 -3.079831 4.2108e+06
-11.35988 10.56971 -3.104181 4.2108e+06
