VERSION 0.7
FIELDS x y z rgb
SIZE 4 4 4 4
TYPE F F F F
COUNT 1 1 1 1
WIDTH 121
HEIGHT 1
VIEWPOINT 0 0 0 1 0 0 0
POINTS 121
DATA ascii 
-10.76432 9.457309 -4.677073 4.2108e+06
-10.10759 9.457309 -5.159164 4.2108e+06
-10.0616 9.961707 -5.21 4.2108e+06
-10.08799 10.53404 -5.21 4.2108e+06
-10.11454 11.10971 -5.21 4.2108e+06
-10.14124 11.68874 -5.21 4.2108e+06
-10.1681 12.27117 -5.21 4.2108e+06
-10.19512 12.85701 -5.21 4.2108e+06
-10.22229 13.44631 -5.21 4.2108e+06
-10.24962 14.03909 -5.21 4.2108e+06
-10.27713 14.63539 -5.21 4.2108e+06
-10.30479 15.23522 -5.21 4.2108e+06
-10.33261 15.83863 -5.21 4.2108e+06
-10.36061 16.44566 -5.21 4.2108e+06
-10.38877 17.05632 -5.21 4.2108e+06
-10.11573 9.457309 -4.12032 4.2108e+06
-9.458412 9.457309 -4.677074 4.2108e+06
-8.889242 9.457309 -5.159164 4.2108e+06
-8.849388 9.961707 -5.21 4.2108e+06
-8.872261 10.53404 -5.21 4.2108e+06
-8.895266 11.10971 -5.21 4.2108e+06
-8.918406 11.68874 -5.21 4.2108e+06
-8.941689 12.27117 -5.21 4.2108e+06
-8.965101 12.85701 -5.21 4.2108e+06
-8.988651 13.44631 -5.21 4.2108e+06
-9.012341 14.03909 -5.21 4.2108e+06
-9.036177 14.63539 -5.21 4.2108e+06
-9.06015 15.23522 -5.21 4.2108e+06
-9.084263 15.83863 -5.21 4.2108e+06
-9.10853 16.44566 -5.21 4.2108e+06
-9.132933 17.05632 -5.21 4.2108e+06
-10.12687 9.457309 -2.700718 4.2108e+06
-9.358269 9.457309 -3.470099 4.2108e+06
-8.7087 9.457309 -4.12032 4.2108e+06
-8.152504 9.457309 -4.677073 4.2108e+06
-7.670897 9.457309 -5.159164 4.2108e+06
-7.637175 9.961707 -5.21 4.2108e+06
-7.656528 10.53404 -5.21 4.2108e+06
-7.675995 11.10971 -5.21 4.2108e+06
-7.695575 11.68874 -5.21 4.2108e+06
-7.715277 12.27117 -5.21 4.2108e+06
-7.735086 12.85701 -5.21 4.2108e+06
-7.755013 13.44631 -5.21 4.2108e+06
-7.775057 14.03909 -5.21 4.2108e+06
-7.795228 14.63539 -5.21 4.2108e+06
-7.815511 15.23522 -5.21 4.2108e+06
-7.835916 15.83863 -5.21 4.2108e+06
-7.856449 16.44566 -5.21 4.2108e+06
-7.877098 17.05632 -5.21 4.2108e+06
-8.461981 9.457309 -2.700718 4.2108e+06
-7.833125 9.457309 -3.470099 4.2108e+06
-7.301661 9.457309 -4.12032 4.2108e+06
-6.846592 9.457309 -4.677074 4.2108e+06
-6.452551 9.457309 -5.159164 4.2108e+06
-6.42496 9.961707 -5.21 4.2108e+06
-6.440794 10.53404 -5.21 4.2108e+06
-6.456721 11.10971 -5.21 4.2108e+06
-6.472741 11.68874 -5.21 4.2108e+06
-6.48886 12.27117 -5.21 4.2108e+06
-6.505068 12.85701 -5.21 4.2108e+06
-6.521372 13.44631 -5.21 4.2108e+06
-6.537772 14.03909 -5.21 4.2108e+06
-6.554276 14.63539 -5.21 4.2108e+06
-6.570871 15.23522 -5.21 4.2108e+06
-6.587564 15.83863 -5.21 4.2108e+06
-6.604365 16.44566 -5.21 4.2108e+06
-6.62126 17.05632 -5.21 4.2108e+06
-6.797098 9.457309 -2.700716 4.2108e+06
-6.307987 9.457309 -3.470099 4.2108e+06
-5.894626 9.457309 -4.12032 4.2108e+06
-5.540683 9.457309 -4.677074 4.2108e+06
-5.234207 9.457309 -5.159163 4.2108e+06
-5.212747 9.961707 -5.21 4.2108e+06
-5.225063 10.53404 -5.21 4.2108e+06
-5.23745 11.10971 -5.21 4.2108e+06
-5.24991 11.68874 -5.21 4.2108e+06
-5.262447 12.27117 -5.21 4.2108e+06
-5.275054 12.85701 -5.21 4.2108e+06
-5.287735 13.44631 -5.21 4.2108e+06
-5.30049 14.03909 -5.21 4.2108e+06
-5.313325 14.63539 -5.21 4.2108e+06
-5.326233 15.23522 -5.21 4.2108e+06
-5.339217 15.83863 -5.21 4.2108e+06
-5.352284 16.44566 -5.21 4.2108e+06
-5.365425 17.05632 -5.21 4.2108e+06
-5.132213 9.457309 -2.700717 4.2108e+06
-4.782848 9.457309 -3.4701 4.2108e+06
-4.487591 9.457309 -4.12032 4.2108e+06
-4.234775 9.457309 -4.677074 4.2108e+06
-4.015862 9.457309 -5.159164 4.2108e+06
-4.000534 9.961707 -5.21 4.2108e+06
-4.009331 10.53404 -5.21 4.2108e+06
-4.018179 11.10971 -5.21 4.2108e+06
-4.02708 11.68874 -5.21 4.2108e+06
-4.036034 12.27117 -5.21 4.2108e+06
-4.045039 12.85701 -5.21 4.2108e+06
-4.054096 13.44631 -5.21 4.2108e+06
-4.063208 14.03909 -5.21 4.2108e+06
-4.072376 14.63539 -5.21 4.2108e+06
-4.081596 15.23522 -5.21 4.2108e+06
-4.09087 15.83863 -5.21 4.2108e+06
-4.100204 16.44566 -5.21 4.2108e+06
-4.10959 17.05632 -5.21 4.2108e+06
-3.467327 9.457309 -2.700717 4.2108e+06
-3.257708 9.457309 -3.470099 4.2108e+06
-3.080553 9.457309 -4.12032 4.2108e+06
-2.928864 9.457309 -4.677074 4.2108e+06
-2.87971 9.825085 -4.869936 4.2108e+06
-2.87971 10.39806 -4.889337 4.2108e+06
-2.87971 10.97102 -4.908731 4.2108e+06
-2.87971 11.544 -4.928125 4.2108e+06
-2.87971 12.11697 -4.94752 4.2108e+06
-2.87971 12.68994 -4.96692 4.2108e+06
-2.87971 13.26291 -4.986316 4.2108e+06
-2.87971 13.83588 -5.005709 4.2108e+06
-2.87971 14.40885 -5.025104 4.2108e+06
-2.87971 14.98182 -5.044505 4.2108e+06
-2.87971 15.55479 -5.063899 4.2108e+06
-2.87971 16.12776 -5.083294 4.2108e+06
-2.87971 16.70073 -5.102695 4.2108e+06
-2.87971 17.27371 -5.122089 4.2108e+06
