VERSION 0.7
FIELDS x y z rgb
SIZE 4 4 4 4
TYPE F F F F
COUNT 1 1 1 1
WIDTH 130
HEIGHT 1
VIEWPOINT 0 0 0 1 0 0 0
POINTS 130
DATA ascii 
-18.00469 3.877925 -5.21 4.2108e+06
-18.05261 4.415436 -5.21 4.2108e+06
-18.1008 4.955978 -5.21 4.2108e+06
-18.14926 5.499581 -5.21 4.2108e+06
-18.19801 6.046273 -5.21 4.2108e+06
-18.24702 6.596068 -5.21 4.2108e+06
-18.29632 7.149004 -5.21 4.2108e+06
-18.34591 7.705108 -5.21 4.2108e+06
-18.39577 8.2644 -5.21 4.2108e+06
-18.44592 8.82691 -5.21 4.2108e+06
-18.49635 9.392668 -5.21 4.2108e+06
-18.5471 9.961708 -5.21 4.2108e+06
-18.59812 10.53404 -5.21 4.2108e+06
-18.64944 11.10971 -5.21 4.2108e+06
-18.67232 3.589587 -4.448858 4.2108e+06
-16.82989 3.877925 -5.21 4.2108e+06
-16.8745 4.415436 -5.21 4.2108e+06
-16.91936 4.955978 -5.21 4.2108e+06
-16.96448 5.499581 -5.21 4.2108e+06
-17.00987 6.046273 -5.21 4.2108e+06
-17.05551 6.596069 -5.21 4.2108e+06
-17.1014 7.149004 -5.21 4.2108e+06
-17.14757 7.705108 -5.21 4.2108e+06
-17.19399 8.2644 -5.21 4.2108e+06
-17.24068 8.82691 -5.21 4.2108e+06
-17.28764 9.392668 -5.21 4.2108e+06
-17.33488 9.961708 -5.21 4.2108e+06
-17.38239 10.53404 -5.21 4.2108e+06
-17.43017 11.10971 -5.21 4.2108e+06
-17.36103 3.589587 -4.448858 4.2108e+06
-15.65508 3.877925 -5.21 4.2108e+06
-15.69639 4.415436 -5.21 4.2108e+06
-15.73793 4.955979 -5.21 4.2108e+06
-15.7797 5.49958 -5.21 4.2108e+06
-15.82173 6.046273 -5.21 4.2108e+06
-15.86399 6.596069 -5.21 4.2108e+06
-15.90648 7.149004 -5.21 4.2108e+06
-15.94923 7.705108 -5.21 4.2108e+06
-15.99221 8.2644 -5.21 4.2108e+06
-16.03544 8.82691 -5.21 4.2108e+06
-16.07892 9.392668 -5.21 4.2108e+06
-16.12267 9.961708 -5.21 4.2108e+06
-16.16666 10.53404 -5.21 4.2108e+06
-16.2109 11.10971 -5.21 4.2108e+06
-16.04975 3.589587 -4.448858 4.2108e+06
-14.48027 3.877925 -5.21 4.2108e+06
-14.51828 4.415436 -5.21 4.2108e+06
-14.5565 4.955978 -5.21 4.2108e+06
-14.59493 5.499581 -5.21 4.2108e+06
-14.6336 6.046273 -5.21 4.2108e+06
-14.67247 6.596068 -5.21 4.2108e+06
-14.71156 7.149004 -5.21 4.2108e+06
-14.7509 7.705108 -5.21 4.2108e+06
-14.79044 8.2644 -5.21 4.2108e+06
-14.83021 8.826911 -5.21 4.2108e+06
-14.87021 9.392668 -5.21 4.2108e+06
-14.91046 9.961708 -5.21 4.2108e+06
-14.95092 10.53404 -5.21 4.2108e+06
-14.99163 11.10971 -5.21 4.2108e+06
-14.73847 3.589587 -4.448857 4.2108e+06
-13.30547 3.877925 -5.21 4.2108e+06
-13.34017 4.415436 -5.21 4.2108e+06
-13.37506 4.955979 -5.21 4.2108e+06
-13.41015 5.499581 -5.21 4.2108e+06
-13.44546 6.046273 -5.21 4.2108e+06
-13.48095 6.596069 -5.21 4.2108e+06
-13.51664 7.149004 -5.21 4.2108e+06
-13.55256 7.705108 -5.21 4.2108e+06
-13.58866 8.2644 -5.21 4.2108e+06
-13.62497 8.82691 -5.21 4.2108e+06
-13.6615 9.392668 -5.21 4.2108e+06
-13.69824 9.961708 -5.21 4.2108e+06
-13.73519 10.53404 -5.21 4.2108e+06
-13.77235 11.10971 -5.21 4.2108e+06
-13.42719 3.589587 -4.448858 4.2108e+06
-12.13066 3.877925 -5.21 4.2108e+06
-12.16206 4.415436 -5.21 4.2108e+06
-12.19363 4.955978 -5.21 4.2108e+06
-12.22538 5.49958 -5.21 4.2108e+06
-12.25732 6.046273 -5.21 4.2108e+06
-12.28943 6.596069 -5.21 4.2108e+06
-12.32173 7.149004 -5.21 4.2108e+06
-12.35422 7.705108 -5.21 4.2108e+06
-12.38688 8.2644 -5.21 4.2108e+06
-12.41974 8.82691 -5.21 4.2108e+06
-12.45278 9.392668 -5.21 4.2108e+06
-12.48603 9.961708 -5.21 4.2108e+06
-12.51946 10.53404 -5.21 4.2108e+06
-12.55308 11.10971 -5.21 4.2108e+06
-12.1159 3.589587 -4.448858 4.2108e+06
-10.95585 3.877925 -5.21 4.2108e+06
-10.98394 4.415436 -5.21 4.2108e+06
-11.01219 4.955978 -5.21 4.2108e+06
-11.0406 5.499581 -5.21 4.2108e+06
-11.06918 6.046273 -5.21 4.2108e+06
-11.09791 6.596069 -5.21 4.2108e+06
-11.12681 7.149004 -5.21 4.2108e+06
-11.15588 7.705107 -5.21 4.2108e+06
-11.18511 8.2644 -5.21 4.2108e+06
-11.2145 8.82691 -5.21 4.2108e+06
-11.24407 9.392668 -5.21 4.2108e+06
-11.27382 9.961708 -5.21 4.2108e+06
-11.30373 10.53404 -5.21 4.2108e+06
-11.33381 11.10971 -5.21 4.2108e+06
-10.80462 3.589587 -4.448858 4.2108e+06
-10.73986 4.16063 -4.51573 4.2108e+06
-10.73986 4.746881 -4.535574 4.2108e+06
-10.73986 5.33313 -4.555418 4.2108e+06
-10.73986 5.919382 -4.575262 4.2108e+06
-10.73986 6.505634 -4.595112 4.2108e+06
-10.73986 7.091883 -4.614956 4.2108e+06
-10.73986 7.678133 -4.6348 4.2108e+06
-10.73986 8.264383 -4.654651 4.2108e+06
-10.73986 8.850636 -4.674494 4.2108e+06
-10.73986 9.436888 -4.694338 4.2108e+06
-10.73986 10.02314 -4.714182 4.2108e+06
-10.73986 10.60939 -4.734033 4.2108e+06
-10.73986 11.19564 -4.753876 4.2108e+06
-10.73986 3.92736 -3.404476 4.2108e+06
-10.73986 4.603804 -3.427382 4.2108e+06
-10.73986 5.280247 -3.450278 4.2108e+06
-10.73986 5.956688 -3.473175 4.2108e+06
-10.73986 6.633132 -3.496072 4.2108e+06
-10.73986 7.309576 -3.518977 4.2108e+06
-10.73986 7.986018 -3.541874 4.2108e+06
-10.73986 8.662462 -3.56477 4.2108e+06
-10.73986 9.338903 -3.587674 4.2108e+06
-10.73986 10.01535 -3.61057 4.2108e+06
-10.73986 10.69179 -3.633468 4.2108e+06
-10.73986 11.36824 -3.656365 4.2108e+06
