VERSION 0.7
FIELDS x y z rgb
SIZE 4 4 4 4
TYPE F F F F
COUNT 1 1 1 1
WIDTH 119
HEIGHT 1
VIEWPOINT 0 0 0 1 0 0 0
POINTS 119
DATA ascii 
-11.24407 9.392668 -5.21 4.2108e+06
-11.27382 9.961707 -5.21 4.2108e+06
-10.60884 9.327497 -4.786814 4.2108e+06
-10.03535 9.392667 -5.21 4.2108e+06
-10.0616 9.961707 -5.21 4.2108e+06
-10.08799 10.53404 -5.21 4.2108e+06
-10.11454 11.10971 -5.21 4.2108e+06
-10.14124 11.68874 -5.21 4.2108e+06
-10.1681 12.27117 -5.21 4.2108e+06
-10.19512 12.85701 -5.21 4.2108e+06
-10.22229 13.44631 -5.21 4.2108e+06
-10.24962 14.03909 -5.21 4.2108e+06
-10.27713 14.63539 -5.21 4.2108e+06
-10.30479 15.23522 -5.21 4.2108e+06
-10.33261 15.83863 -5.21 4.2108e+06
-10.36061 16.44566 -5.21 4.2108e+06
-10.38877 17.05632 -5.21 4.2108e+06
-10.72603 9.327497 -3.599001 4.2108e+06
-9.970549 9.327497 -4.238899 4.2108e+06
-9.323662 9.327497 -4.786815 4.2108e+06
-8.82664 9.392667 -5.21 4.2108e+06
-8.849388 9.961707 -5.21 4.2108e+06
-8.872261 10.53404 -5.21 4.2108e+06
-8.895266 11.10971 -5.21 4.2108e+06
-8.918406 11.68874 -5.21 4.2108e+06
-8.941689 12.27117 -5.21 4.2108e+06
-8.965101 12.85701 -5.21 4.2108e+06
-8.988651 13.44631 -5.21 4.2108e+06
-9.012341 14.03909 -5.21 4.2108e+06
-9.036177 14.63539 -5.21 4.2108e+06
-9.06015 15.23522 -5.21 4.2108e+06
-9.084263 15.83863 -5.21 4.2108e+06
-9.10853 16.44566 -5.21 4.2108e+06
-9.132933 17.05632 -5.21 4.2108e+06
-9.981506 9.327497 -2.841832 4.2108e+06
-9.225107 9.327497 -3.599 4.2108e+06
-8.58585 9.327497 -4.238899 4.2108e+06
-8.038485 9.327497 -4.786814 4.2108e+06
-7.617927 9.392667 -5.21 4.2108e+06
-7.637175 9.961707 -5.21 4.2108e+06
-7.656528 10.53404 -5.21 4.2108e+06
-7.675995 11.10971 -5.21 4.2108e+06
-7.695575 11.68874 -5.21 4.2108e+06
-7.715277 12.27117 -5.21 4.2108e+06
-7.735086 12.85701 -5.21 4.2108e+06
-7.755013 13.44631 -5.21 4.2108e+06
-7.775057 14.03909 -5.21 4.2108e+06
-7.795228 14.63539 -5.21 4.2108e+06
-7.815511 15.23522 -5.21 4.2108e+06
-7.835916 15.83863 -5.21 4.2108e+06
-7.856449 16.44566 -5.21 4.2108e+06
-7.877098 17.05632 -5.21 4.2108e+06
-8.343048 9.327497 -2.841832 4.2108e+06
-7.724175 9.327497 -3.599 4.2108e+06
-7.201148 9.327497 -4.238899 4.2108e+06
-6.753303 9.327497 -4.786815 4.2108e+06
-6.409211 9.392666 -5.21 4.2108e+06
-6.42496 9.961707 -5.21 4.2108e+06
-6.440794 10.53404 -5.21 4.2108e+06
-6.456721 11.10971 -5.21 4.2108e+06
-6.472741 11.68874 -5.21 4.2108e+06
-6.48886 12.27117 -5.21 4.2108e+06
-6.505068 12.85701 -5.21 4.2108e+06
-6.521372 13.44631 -5.21 4.2108e+06
-6.537772 14.03909 -5.21 4.2108e+06
-6.554276 14.63539 -5.21 4.2108e+06
-6.570871 15.23522 -5.21 4.2108e+06
-6.587564 15.83863 -5.21 4.2108e+06
-6.604365 16.44566 -5.21 4.2108e+06
-6.62126 17.05632 -5.21 4.2108e+06
-6.704594 9.327497 -2.841831 4.2108e+06
-6.223248 9.327497 -3.599001 4.2108e+06
-5.816449 9.327497 -4.238899 4.2108e+06
-5.468125 9.327497 -4.786815 4.2108e+06
-5.200498 9.392666 -5.21 4.2108e+06
-5.212747 9.961707 -5.21 4.2108e+06
-5.225063 10.53404 -5.21 4.2108e+06
-5.23745 11.10971 -5.21 4.2108e+06
-5.24991 11.68874 -5.21 4.2108e+06
-5.262447 12.27117 -5.21 4.2108e+06
-5.275054 12.85701 -5.21 4.2108e+06
-5.287735 13.44631 -5.21 4.2108e+06
-5.30049 14.03909 -5.21 4.2108e+06
-5.313325 14.63539 -5.21 4.2108e+06
-5.326233 15.23522 -5.21 4.2108e+06
-5.339217 15.83863 -5.21 4.2108e+06
-5.352284 16.44566 -5.21 4.2108e+06
-5.365425 17.05632 -5.21 4.2108e+06
-5.066139 9.327497 -2.841831 4.2108e+06
-4.722321 9.327497 -3.599001 4.2108e+06
-4.43175 9.327497 -4.238899 4.2108e+06
-4.182947 9.327497 -4.786815 4.2108e+06
-3.991785 9.392666 -5.21 4.2108e+06
-4.000534 9.961707 -5.21 4.2108e+06
-4.009331 10.53404 -5.21 4.2108e+06
-4.018179 11.10971 -5.21 4.2108e+06
-4.02708 11.68874 -5.21 4.2108e+06
-4.036034 12.27117 -5.21 4.2108e+06
-4.045039 12.85701 -5.21 4.2108e+06
-4.054096 13.44631 -5.21 4.2108e+06
-4.063208 14.03909 -5.21 4.2108e+06
-4.072376 14.63539 -5.21 4.2108e+06
-4.081596 15.23522 -5.21 4.2108e+06
-4.09087 15.83863 -5.21 4.2108e+06
-4.100204 16.44566 -5.21 4.2108e+06
-4.10959 17.05632 -5.21 4.2108e+06
-3.427682 9.327497 -2.841832 4.2108e+06
-3.279709 9.53595 -3.392011 4.2108e+06
-3.279709 10.22894 -3.415467 4.2108e+06
-3.279709 10.92192 -3.438924 4.2108e+06
-3.279709 11.6149 -3.462381 4.2108e+06
-3.279709 12.30788 -3.485845 4.2108e+06
-3.279709 13.00086 -3.509301 4.2108e+06
-3.279709 13.69385 -3.532758 4.2108e+06
-3.279709 14.38683 -3.556214 4.2108e+06
-3.279709 15.07982 -3.579679 4.2108e+06
-3.279709 15.7728 -3.603136 4.2108e+06
-3.279709 16.46578 -3.626592 4.2108e+06
-3.279709 17.15877 -3.650049 4.2108e+06
