VERSION 0.7
FIELDS x y z rgb
SIZE 4 4 4 4
TYPE F F F F
COUNT 1 1 1 1
WIDTH 123
HEIGHT 1
VIEWPOINT 0 0 0 1 0 0 0
POINTS 123
DATA ascii 
-12.41974 8.82691 -5.21 4.2108e+06
-12.45278 9.392667 -5.21 4.2108e+06
-12.48603 9.961708 -5.21 4.2108e+06
-12.51946 10.53404 -5.21 4.2108e+06
-11.92384 8.769495 -4.748614 4.2108e+06
-11.2145 8.82691 -5.21 4.2108e+06
-11.24407 9.392668 -5.21 4.2108e+06
-11.27382 9.961707 -5.21 4.2108e+06
-11.30373 10.53404 -5.21 4.2108e+06
-11.33381 11.10971 -5.21 4.2108e+06
-11.36407 11.68874 -5.21 4.2108e+06
-11.39452 12.27117 -5.21 4.2108e+06
-11.42513 12.85701 -5.21 4.2108e+06
-11.45593 13.44631 -5.21 4.2108e+06
-11.48691 14.03909 -5.21 4.2108e+06
-11.51808 14.63539 -5.21 4.2108e+06
-11.54943 15.23522 -5.21 4.2108e+06
-11.58096 15.83863 -5.21 4.2108e+06
-11.61269 16.44566 -5.21 4.2108e+06
-12.40636 8.769495 -3.448416 4.2108e+06
-11.44642 8.769495 -4.153085 4.2108e+06
-10.63515 8.769495 -4.748613 4.2108e+06
-10.00927 8.82691 -5.21 4.2108e+06
-10.03535 9.392667 -5.21 4.2108e+06
-10.0616 9.961707 -5.21 4.2108e+06
-10.08799 10.53404 -5.21 4.2108e+06
-10.11454 11.10971 -5.21 4.2108e+06
-10.14124 11.68874 -5.21 4.2108e+06
-10.1681 12.27117 -5.21 4.2108e+06
-10.19512 12.85701 -5.21 4.2108e+06
-10.22229 13.44631 -5.21 4.2108e+06
-10.24962 14.03909 -5.21 4.2108e+06
-10.27713 14.63539 -5.21 4.2108e+06
-10.30479 15.23522 -5.21 4.2108e+06
-10.33261 15.83863 -5.21 4.2108e+06
-10.36061 16.44566 -5.21 4.2108e+06
-11.88129 8.769495 -2.601596 4.2108e+06
-10.88151 8.769495 -3.448417 4.2108e+06
-10.04957 8.769495 -4.153085 4.2108e+06
-9.346464 8.769495 -4.748614 4.2108e+06
-8.804031 8.826911 -5.21 4.2108e+06
-8.826641 9.392667 -5.21 4.2108e+06
-8.849389 9.961707 -5.21 4.2108e+06
-8.872262 10.53404 -5.21 4.2108e+06
-8.895266 11.10971 -5.21 4.2108e+06
-8.918406 11.68874 -5.21 4.2108e+06
-8.941689 12.27117 -5.21 4.2108e+06
-8.965101 12.85701 -5.21 4.2108e+06
-8.988652 13.44631 -5.21 4.2108e+06
-9.012341 14.03909 -5.21 4.2108e+06
-9.036178 14.63539 -5.21 4.2108e+06
-9.06015 15.23522 -5.21 4.2108e+06
-9.084263 15.83863 -5.21 4.2108e+06
-9.10853 16.44566 -5.21 4.2108e+06
-10.20263 8.769495 -2.601594 4.2108e+06
-9.356663 8.769495 -3.448418 4.2108e+06
-8.652711 8.769495 -4.153085 4.2108e+06
-8.057779 8.769495 -4.748614 4.2108e+06
-7.598797 8.82691 -5.21 4.2108e+06
-7.617928 9.392667 -5.21 4.2108e+06
-7.637176 9.961707 -5.21 4.2108e+06
-7.656529 10.53404 -5.21 4.2108e+06
-7.675995 11.10971 -5.21 4.2108e+06
-7.695575 11.68874 -5.21 4.2108e+06
-7.715277 12.27117 -5.21 4.2108e+06
-7.735086 12.85701 -5.21 4.2108e+06
-7.755013 13.44631 -5.21 4.2108e+06
-7.775058 14.03909 -5.21 4.2108e+06
-7.795229 14.63539 -5.21 4.2108e+06
-7.815512 15.23522 -5.21 4.2108e+06
-7.835916 15.83863 -5.21 4.2108e+06
-7.856449 16.44566 -5.21 4.2108e+06
-8.523972 8.769495 -2.601594 4.2108e+06
-7.831812 8.769495 -3.448417 4.2108e+06
-7.255851 8.769495 -4.153084 4.2108e+06
-6.769089 8.769495 -4.748614 4.2108e+06
-6.393559 8.82691 -5.21 4.2108e+06
-6.409211 9.392666 -5.21 4.2108e+06
-6.42496 9.961707 -5.21 4.2108e+06
-6.440794 10.53404 -5.21 4.2108e+06
-6.456721 11.10971 -5.21 4.2108e+06
-6.472741 11.68874 -5.21 4.2108e+06
-6.488861 12.27117 -5.21 4.2108e+06
-6.505069 12.85701 -5.21 4.2108e+06
-6.521373 13.44631 -5.21 4.2108e+06
-6.537773 14.03909 -5.21 4.2108e+06
-6.554276 14.63539 -5.21 4.2108e+06
-6.570871 15.23522 -5.21 4.2108e+06
-6.587565 15.83863 -5.21 4.2108e+06
-6.604365 16.44566 -5.21 4.2108e+06
-6.845312 8.769495 -2.601594 4.2108e+06
-6.306966 8.769495 -3.448416 4.2108e+06
-5.858996 8.769495 -4.153085 4.2108e+06
-5.480404 8.769495 -4.748613 4.2108e+06
-5.188324 8.82691 -5.21 4.2108e+06
-5.200498 9.392666 -5.21 4.2108e+06
-5.212748 9.961707 -5.21 4.2108e+06
-5.225063 10.53404 -5.21 4.2108e+06
-5.237451 11.10971 -5.21 4.2108e+06
-5.24991 11.68874 -5.21 4.2108e+06
-5.262448 12.27117 -5.21 4.2108e+06
-5.275054 12.85701 -5.21 4.2108e+06
-5.287735 13.44631 -5.21 4.2108e+06
-5.30049 14.03909 -5.21 4.2108e+06
-5.313326 14.63539 -5.21 4.2108e+06
-5.326234 15.23522 -5.21 4.2108e+06
-5.339218 15.83863 -5.21 4.2108e+06
-5.352285 16.44566 -5.21 4.2108e+06
-5.166652 8.769495 -2.601595 4.2108e+06
-4.78212 8.769495 -3.448417 4.2108e+06
-4.539721 8.935877 -3.987871 4.2108e+06
-4.539721 9.578494 -4.009622 4.2108e+06
-4.539721 10.22111 -4.031373 4.2108e+06
-4.539721 10.86372 -4.053125 4.2108e+06
-4.539721 11.50634 -4.074884 4.2108e+06
-4.539721 12.14895 -4.096636 4.2108e+06
-4.539721 12.79156 -4.118388 4.2108e+06
-4.539721 13.43418 -4.14014 4.2108e+06
-4.539721 14.07679 -4.161899 4.2108e+06
-4.539721 14.71941 -4.18365 4.2108e+06
-4.539721 15.36202 -4.205401 4.2108e+06
-4.539721 16.00464 -4.227153 4.2108e+06
-4.539721 16.64725 -4.248913 4.2108e+06
