VERSION 0.7
FIELDS x y z rgb
SIZE 4 4 4 4
TYPE F F F F
COUNT 1 1 1 1
WIDTH 138
HEIGHT 1
VIEWPOINT 0 0 0 1 0 0 0
POINTS 138
DATA ascii 
-15.82173 6.046272 -5.21 4.2108e+06
-15.86399 6.596068 -5.21 4.2108e+06
-15.90648 7.149004 -5.21 4.2108e+06
-15.94923 7.705108 -5.21 4.2108e+06
-15.99221 8.2644 -5.21 4.2108e+06
-16.03544 8.82691 -5.21 4.2108e+06
-16.07892 9.392667 -5.21 4.2108e+06
-16.12267 9.961708 -5.21 4.2108e+06
-16.16666 10.53404 -5.21 4.2108e+06
-16.2109 11.10971 -5.21 4.2108e+06
-16.25539 11.68874 -5.21 4.2108e+06
-16.30017 12.27117 -5.21 4.2108e+06
-16.34519 12.85701 -5.21 4.2108e+06
-16.39048 13.44631 -5.21 4.2108e+06
-15.55403 5.796611 -4.76089 4.2108e+06
-14.6336 6.046272 -5.21 4.2108e+06
-14.67247 6.596068 -5.21 4.2108e+06
-14.71156 7.149004 -5.21 4.2108e+06
-14.7509 7.705108 -5.21 4.2108e+06
-14.79044 8.2644 -5.21 4.2108e+06
-14.83021 8.82691 -5.21 4.2108e+06
-14.87021 9.392667 -5.21 4.2108e+06
-14.91046 9.961707 -5.21 4.2108e+06
-14.95092 10.53404 -5.21 4.2108e+06
-14.99163 11.10971 -5.21 4.2108e+06
-15.03256 11.68874 -5.21 4.2108e+06
-15.07376 12.27117 -5.21 4.2108e+06
-15.11518 12.85702 -5.21 4.2108e+06
-15.15684 13.44631 -5.21 4.2108e+06
-16.21188 5.796611 -3.751005 4.2108e+06
-14.28586 5.796611 -4.76089 4.2108e+06
-13.44546 6.046272 -5.21 4.2108e+06
-13.48095 6.596068 -5.21 4.2108e+06
-13.51664 7.149004 -5.21 4.2108e+06
-13.55256 7.705107 -5.21 4.2108e+06
-13.58866 8.2644 -5.21 4.2108e+06
-13.62497 8.82691 -5.21 4.2108e+06
-13.6615 9.392667 -5.21 4.2108e+06
-13.69824 9.961707 -5.21 4.2108e+06
-13.73519 10.53404 -5.21 4.2108e+06
-13.77235 11.10971 -5.21 4.2108e+06
-13.80973 11.68874 -5.21 4.2108e+06
-13.84734 12.27117 -5.21 4.2108e+06
-13.88516 12.85701 -5.21 4.2108e+06
-13.9232 13.44631 -5.21 4.2108e+06
-14.76028 5.796611 -3.751005 4.2108e+06
-13.01768 5.796611 -4.76089 4.2108e+06
-12.25732 6.046272 -5.21 4.2108e+06
-12.28943 6.596069 -5.21 4.2108e+06
-12.32173 7.149003 -5.21 4.2108e+06
-12.35422 7.705107 -5.21 4.2108e+06
-12.38688 8.2644 -5.21 4.2108e+06
-12.41974 8.82691 -5.21 4.2108e+06
-12.45278 9.392667 -5.21 4.2108e+06
-12.48603 9.961708 -5.21 4.2108e+06
-12.51946 10.53404 -5.21 4.2108e+06
-12.55308 11.10971 -5.21 4.2108e+06
-12.5869 11.68874 -5.21 4.2108e+06
-12.62093 12.27117 -5.21 4.2108e+06
-12.65515 12.85702 -5.21 4.2108e+06
-12.68957 13.44631 -5.21 4.2108e+06
-15.39514 5.796611 -2.399577 4.2108e+06
-13.30867 5.796611 -3.751004 4.2108e+06
-11.7495 5.796611 -4.76089 4.2108e+06
-11.06918 6.046272 -5.21 4.2108e+06
-11.09791 6.596068 -5.21 4.2108e+06
-11.12681 7.149004 -5.21 4.2108e+06
-11.15588 7.705107 -5.21 4.2108e+06
-11.18511 8.2644 -5.21 4.2108e+06
-11.2145 8.82691 -5.21 4.2108e+06
-11.24407 9.392668 -5.21 4.2108e+06
-11.27382 9.961707 -5.21 4.2108e+06
-11.30373 10.53404 -5.21 4.2108e+06
-11.33381 11.10971 -5.21 4.2108e+06
-11.36407 11.68874 -5.21 4.2108e+06
-11.39452 12.27117 -5.21 4.2108e+06
-11.42513 12.85701 -5.21 4.2108e+06
-11.45593 13.44631 -5.21 4.2108e+06
-13.69806 5.796611 -2.399578 4.2108e+06
-11.85706 5.796611 -3.751004 4.2108e+06
-10.48133 5.796611 -4.76089 4.2108e+06
-9.881039 6.046272 -5.21 4.2108e+06
-9.906391 6.596068 -5.21 4.2108e+06
-9.931888 7.149003 -5.21 4.2108e+06
-9.95754 7.705108 -5.21 4.2108e+06
-9.983328 8.2644 -5.21 4.2108e+06
-10.00927 8.82691 -5.21 4.2108e+06
-10.03535 9.392667 -5.21 4.2108e+06
-10.0616 9.961707 -5.21 4.2108e+06
-10.08799 10.53404 -5.21 4.2108e+06
-10.11454 11.10971 -5.21 4.2108e+06
-10.14124 11.68874 -5.21 4.2108e+06
-10.1681 12.27117 -5.21 4.2108e+06
-10.19512 12.85701 -5.21 4.2108e+06
-10.22229 13.44631 -5.21 4.2108e+06
-12.00099 5.796611 -2.399578 4.2108e+06
-10.40545 5.796611 -3.751004 4.2108e+06
-9.213151 5.796611 -4.76089 4.2108e+06
-8.692902 6.046272 -5.21 4.2108e+06
-8.714874 6.596069 -5.21 4.2108e+06
-8.736971 7.149004 -5.21 4.2108e+06
-8.759201 7.705107 -5.21 4.2108e+06
-8.781551 8.2644 -5.21 4.2108e+06
-8.804031 8.826911 -5.21 4.2108e+06
-8.826641 9.392667 -5.21 4.2108e+06
-8.849389 9.961707 -5.21 4.2108e+06
-8.872262 10.53404 -5.21 4.2108e+06
-8.895266 11.10971 -5.21 4.2108e+06
-8.918406 11.68874 -5.21 4.2108e+06
-8.941689 12.27117 -5.21 4.2108e+06
-8.965101 12.85701 -5.21 4.2108e+06
-8.988652 13.44631 -5.21 4.2108e+06
-10.30391 5.796611 -2.399579 4.2108e+06
-8.953844 5.796611 -3.751004 4.2108e+06
-8.479811 6.142942 -4.237238 4.2108e+06
-8.479811 6.757444 -4.258045 4.2108e+06
-8.479811 7.371943 -4.278845 4.2108e+06
-8.479811 7.986445 -4.299645 4.2108e+06
-8.479811 8.600943 -4.320453 4.2108e+06
-8.479811 9.215446 -4.341253 4.2108e+06
-8.479811 9.829947 -4.362052 4.2108e+06
-8.479811 10.44445 -4.382853 4.2108e+06
-8.479811 11.05895 -4.40366 4.2108e+06
-8.479811 11.67345 -4.42446 4.2108e+06
-8.479811 12.28795 -4.44526 4.2108e+06
-8.479811 12.90245 -4.46606 4.2108e+06
-8.479811 13.51695 -4.486868 4.2108e+06
-8.606834 5.796611 -2.399577 4.2108e+06
-8.479811 6.472541 -2.577866 4.2108e+06
-8.479811 7.223598 -2.603288 4.2108e+06
-8.479811 7.974656 -2.628718 4.2108e+06
-8.479811 8.725712 -2.65414 4.2108e+06
-8.479811 9.476768 -2.679564 4.2108e+06
-8.479811 10.22782 -2.704994 4.2108e+06
-8.479811 10.97888 -2.730416 4.2108e+06
-8.479811 11.72994 -2.755838 4.2108e+06
-8.479811 12.481 -2.781261 4.2108e+06
-8.479811 13.23205 -2.806692 4.2108e+06
