VERSION 0.7
FIELDS x y z rgb
SIZE 4 4 4 4
TYPE F F F F
COUNT 1 1 1 1
WIDTH 131
HEIGHT 1
VIEWPOINT 0 0 0 1 0 0 0
POINTS 131
DATA ascii 
-19.12854 3.343418 -5.21 4.2108e+06
-19.1795 3.877924 -5.21 4.2108e+06
-19.23072 4.415436 -5.21 4.2108e+06
-17.95702 3.343418 -5.21 4.2108e+06
-18.00469 3.877925 -5.21 4.2108e+06
-18.05261 4.415436 -5.21 4.2108e+06
-18.1008 4.955978 -5.21 4.2108e+06
-18.14926 5.499581 -5.21 4.2108e+06
-18.19801 6.046273 -5.21 4.2108e+06
-18.24702 6.596068 -5.21 4.2108e+06
-18.29632 7.149004 -5.21 4.2108e+06
-18.34591 7.705108 -5.21 4.2108e+06
-18.39577 8.2644 -5.21 4.2108e+06
-18.44592 8.82691 -5.21 4.2108e+06
-18.49635 9.392668 -5.21 4.2108e+06
-18.5471 9.961708 -5.21 4.2108e+06
-18.59812 10.53404 -5.21 4.2108e+06
-16.78551 3.343418 -5.21 4.2108e+06
-16.82989 3.877925 -5.21 4.2108e+06
-16.8745 4.415436 -5.21 4.2108e+06
-16.91936 4.955978 -5.21 4.2108e+06
-16.96448 5.499581 -5.21 4.2108e+06
-17.00987 6.046273 -5.21 4.2108e+06
-17.05551 6.596069 -5.21 4.2108e+06
-17.1014 7.149004 -5.21 4.2108e+06
-17.14757 7.705108 -5.21 4.2108e+06
-17.19399 8.2644 -5.21 4.2108e+06
-17.24068 8.82691 -5.21 4.2108e+06
-17.28764 9.392668 -5.21 4.2108e+06
-17.33488 9.961708 -5.21 4.2108e+06
-17.38239 10.53404 -5.21 4.2108e+06
-18.22352 3.089925 -4.052069 4.2108e+06
-15.61399 3.343418 -5.21 4.2108e+06
-15.65508 3.877925 -5.21 4.2108e+06
-15.69639 4.415436 -5.21 4.2108e+06
-15.73793 4.955979 -5.21 4.2108e+06
-15.7797 5.49958 -5.21 4.2108e+06
-15.82173 6.046273 -5.21 4.2108e+06
-15.86399 6.596069 -5.21 4.2108e+06
-15.90648 7.149004 -5.21 4.2108e+06
-15.94923 7.705108 -5.21 4.2108e+06
-15.99221 8.2644 -5.21 4.2108e+06
-16.03544 8.82691 -5.21 4.2108e+06
-16.07892 9.392668 -5.21 4.2108e+06
-16.12267 9.961708 -5.21 4.2108e+06
-16.16666 10.53404 -5.21 4.2108e+06
-16.84324 3.089925 -4.052069 4.2108e+06
-14.44247 3.343418 -5.21 4.2108e+06
-14.48027 3.877925 -5.21 4.2108e+06
-14.51828 4.415436 -5.21 4.2108e+06
-14.5565 4.955978 -5.21 4.2108e+06
-14.59493 5.499581 -5.21 4.2108e+06
-14.6336 6.046273 -5.21 4.2108e+06
-14.67247 6.596068 -5.21 4.2108e+06
-14.71156 7.149004 -5.21 4.2108e+06
-14.7509 7.705108 -5.21 4.2108e+06
-14.79044 8.2644 -5.21 4.2108e+06
-14.83021 8.826911 -5.21 4.2108e+06
-14.87021 9.392668 -5.21 4.2108e+06
-14.91046 9.961708 -5.21 4.2108e+06
-14.95092 10.53404 -5.21 4.2108e+06
-15.46296 3.089925 -4.052069 4.2108e+06
-13.27095 3.343418 -5.21 4.2108e+06
-13.30547 3.877925 -5.21 4.2108e+06
-13.34017 4.415436 -5.21 4.2108e+06
-13.37506 4.955979 -5.21 4.2108e+06
-13.41015 5.499581 -5.21 4.2108e+06
-13.44546 6.046273 -5.21 4.2108e+06
-13.48095 6.596069 -5.21 4.2108e+06
-13.51664 7.149004 -5.21 4.2108e+06
-13.55256 7.705108 -5.21 4.2108e+06
-13.58866 8.2644 -5.21 4.2108e+06
-13.62497 8.82691 -5.21 4.2108e+06
-13.6615 9.392668 -5.21 4.2108e+06
-13.69824 9.961708 -5.21 4.2108e+06
-13.73519 10.53404 -5.21 4.2108e+06
-14.08268 3.089925 -4.052069 4.2108e+06
-12.09943 3.343418 -5.21 4.2108e+06
-12.13066 3.877925 -5.21 4.2108e+06
-12.16206 4.415436 -5.21 4.2108e+06
-12.19363 4.955978 -5.21 4.2108e+06
-12.22538 5.49958 -5.21 4.2108e+06
-12.25732 6.046273 -5.21 4.2108e+06
-12.28943 6.596069 -5.21 4.2108e+06
-12.32173 7.149004 -5.21 4.2108e+06
-12.35422 7.705108 -5.21 4.2108e+06
-12.38688 8.2644 -5.21 4.2108e+06
-12.41974 8.82691 -5.21 4.2108e+06
-12.45278 9.392668 -5.21 4.2108e+06
-12.48603 9.961708 -5.21 4.2108e+06
-12.51946 10.53404 -5.21 4.2108e+06
-12.70239 3.089925 -4.052069 4.2108e+06
-11.23987 3.408061 -5.010127 4.2108e+06
-11.23987 3.951815 -5.028538 4.2108e+06
-11.23987 4.49557 -5.046944 4.2108e+06
-11.23987 5.039322 -5.065349 4.2108e+06
-11.23987 5.583076 -5.083754 4.2108e+06
-11.23987 6.126832 -5.102166 4.2108e+06
-11.23987 6.670585 -5.120571 4.2108e+06
-11.23987 7.214339 -5.138977 4.2108e+06
-11.23987 7.75809 -5.157389 4.2108e+06
-11.23987 8.301847 -5.175794 4.2108e+06
-11.23987 8.845601 -5.194199 4.2108e+06
-11.24407 9.392668 -5.21 4.2108e+06
-11.27382 9.961708 -5.21 4.2108e+06
-11.30373 10.53404 -5.21 4.2108e+06
-11.32211 3.089925 -4.052068 4.2108e+06
-11.23987 3.691803 -4.132809 4.2108e+06
-11.23987 4.308058 -4.153677 4.2108e+06
-11.23987 4.924313 -4.174536 4.2108e+06
-11.23987 5.540565 -4.195395 4.2108e+06
-11.23987 6.15682 -4.216255 4.2108e+06
-11.23987 6.773077 -4.237121 4.2108e+06
-11.23987 7.389329 -4.25798 4.2108e+06
-11.23987 8.005583 -4.27884 4.2108e+06
-11.23987 8.621838 -4.299706 4.2108e+06
-11.23987 9.238094 -4.320565 4.2108e+06
-11.23987 9.854347 -4.341425 4.2108e+06
-11.23987 10.4706 -4.362285 4.2108e+06
-11.23987 11.08686 -4.383151 4.2108e+06
-11.23987 3.351785 -2.961482 4.2108e+06
-11.23987 4.062849 -2.98555 4.2108e+06
-11.23987 4.773912 -3.009627 4.2108e+06
-11.23987 5.484976 -3.033696 4.2108e+06
-11.23987 6.196037 -3.057764 4.2108e+06
-11.23987 6.9071 -3.081832 4.2108e+06
-11.23987 7.618164 -3.10591 4.2108e+06
-11.23987 8.329226 -3.129979 4.2108e+06
-11.23987 9.040289 -3.154047 4.2108e+06
-11.23987 9.75135 -3.178123 4.2108e+06
-11.23987 10.46242 -3.202192 4.2108e+06
