VERSION 0.7
FIELDS x y z rgb
SIZE 4 4 4 4
TYPE F F F F
COUNT 1 1 1 1
WIDTH 136
HEIGHT 1
VIEWPOINT 0 0 0 1 0 0 0
POINTS 136
DATA ascii 
-20.19253 2.28333 -5.21 4.2108e+06
-19.02752 2.28333 -5.21 4.2108e+06
-19.07789 2.811896 -5.21 4.2108e+06
-19.12854 3.343418 -5.21 4.2108e+06
-19.1795 3.877924 -5.21 4.2108e+06
-19.23072 4.415436 -5.21 4.2108e+06
-19.28223 4.955978 -5.21 4.2108e+06
-19.33403 5.49958 -5.21 4.2108e+06
-19.38615 6.046273 -5.21 4.2108e+06
-19.43855 6.596069 -5.21 4.2108e+06
-19.49123 7.149004 -5.21 4.2108e+06
-19.54425 7.705108 -5.21 4.2108e+06
-19.59755 8.2644 -5.21 4.2108e+06
-19.65115 8.82691 -5.21 4.2108e+06
-19.70507 9.392668 -5.21 4.2108e+06
-19.75931 9.961708 -5.21 4.2108e+06
-17.86252 2.28333 -5.21 4.2108e+06
-17.90964 2.811895 -5.21 4.2108e+06
-17.95702 3.343418 -5.21 4.2108e+06
-18.00469 3.877925 -5.21 4.2108e+06
-18.05261 4.415436 -5.21 4.2108e+06
-18.1008 4.955978 -5.21 4.2108e+06
-18.14926 5.499581 -5.21 4.2108e+06
-18.19801 6.046273 -5.21 4.2108e+06
-18.24702 6.596068 -5.21 4.2108e+06
-18.29632 7.149004 -5.21 4.2108e+06
-18.34591 7.705108 -5.21 4.2108e+06
-18.39577 8.2644 -5.21 4.2108e+06
-18.44592 8.82691 -5.21 4.2108e+06
-18.49635 9.392668 -5.21 4.2108e+06
-18.5471 9.961708 -5.21 4.2108e+06
-16.69752 2.28333 -5.21 4.2108e+06
-16.74139 2.811896 -5.21 4.2108e+06
-16.78551 3.343418 -5.21 4.2108e+06
-16.82989 3.877925 -5.21 4.2108e+06
-16.8745 4.415436 -5.21 4.2108e+06
-16.91936 4.955978 -5.21 4.2108e+06
-16.96448 5.499581 -5.21 4.2108e+06
-17.00987 6.046273 -5.21 4.2108e+06
-17.05551 6.596069 -5.21 4.2108e+06
-17.1014 7.149004 -5.21 4.2108e+06
-17.14757 7.705108 -5.21 4.2108e+06
-17.19399 8.2644 -5.21 4.2108e+06
-17.24068 8.82691 -5.21 4.2108e+06
-17.28764 9.392668 -5.21 4.2108e+06
-17.33488 9.961708 -5.21 4.2108e+06
-15.53252 2.28333 -5.21 4.2108e+06
-15.57314 2.811896 -5.21 4.2108e+06
-15.61399 3.343418 -5.21 4.2108e+06
-15.65508 3.877925 -5.21 4.2108e+06
-15.69639 4.415436 -5.21 4.2108e+06
-15.73793 4.955979 -5.21 4.2108e+06
-15.7797 5.49958 -5.21 4.2108e+06
-15.82173 6.046273 -5.21 4.2108e+06
-15.86399 6.596069 -5.21 4.2108e+06
-15.90648 7.149004 -5.21 4.2108e+06
-15.94923 7.705108 -5.21 4.2108e+06
-15.99221 8.2644 -5.21 4.2108e+06
-16.03544 8.82691 -5.21 4.2108e+06
-16.07892 9.392668 -5.21 4.2108e+06
-16.12267 9.961708 -5.21 4.2108e+06
-14.36752 2.28333 -5.21 4.2108e+06
-14.40489 2.811896 -5.21 4.2108e+06
-14.44247 3.343418 -5.21 4.2108e+06
-14.48027 3.877925 -5.21 4.2108e+06
-14.51828 4.415436 -5.21 4.2108e+06
-14.5565 4.955978 -5.21 4.2108e+06
-14.59493 5.499581 -5.21 4.2108e+06
-14.6336 6.046273 -5.21 4.2108e+06
-14.67247 6.596068 -5.21 4.2108e+06
-14.71156 7.149004 -5.21 4.2108e+06
-14.7509 7.705108 -5.21 4.2108e+06
-14.79044 8.2644 -5.21 4.2108e+06
-14.83021 8.826911 -5.21 4.2108e+06
-14.87021 9.392668 -5.21 4.2108e+06
-14.91046 9.961708 -5.21 4.2108e+06
-13.20252 2.28333 -5.21 4.2108e+06
-13.23664 2.811896 -5.21 4.2108e+06
-13.27095 3.343418 -5.21 4.2108e+06
-13.30547 3.877925 -5.21 4.2108e+06
-13.34017 4.415436 -5.21 4.2108e+06
-13.37506 4.955979 -5.21 4.2108e+06
-13.41015 5.499581 -5.21 4.2108e+06
-13.44546 6.046273 -5.21 4.2108e+06
-13.48095 6.596069 -5.21 4.2108e+06
-13.51664 7.149004 -5.21 4.2108e+06
-13.55256 7.705108 -5.21 4.2108e+06
-13.58866 8.2644 -5.21 4.2108e+06
-13.62497 8.82691 -5.21 4.2108e+06
-13.6615 9.392668 -5.21 4.2108e+06
-13.69824 9.961708 -5.21 4.2108e+06
-12.2399 2.301677 -5.093335 4.2108e+06
-12.2399 2.835569 -5.111406 4.2108e+06
-12.2399 3.369461 -5.129478 4.2108e+06
-12.2399 3.903352 -5.147555 4.2108e+06
-12.2399 4.437243 -5.165627 4.2108e+06
-12.2399 4.971133 -5.183698 4.2108e+06
-12.2399 5.505024 -5.20177 4.2108e+06
-12.25732 6.046273 -5.21 4.2108e+06
-12.28943 6.596069 -5.21 4.2108e+06
-12.32173 7.149004 -5.21 4.2108e+06
-12.35422 7.705108 -5.21 4.2108e+06
-12.38688 8.2644 -5.21 4.2108e+06
-12.41974 8.82691 -5.21 4.2108e+06
-12.45278 9.392668 -5.21 4.2108e+06
-12.48603 9.961708 -5.21 4.2108e+06
-12.2399 2.421875 -4.32902 4.2108e+06
-12.2399 3.018577 -4.349218 4.2108e+06
-12.2399 3.61528 -4.369415 4.2108e+06
-12.2399 4.211982 -4.38962 4.2108e+06
-12.2399 4.808684 -4.409817 4.2108e+06
-12.2399 5.405384 -4.430015 4.2108e+06
-12.2399 6.002086 -4.450212 4.2108e+06
-12.2399 6.598789 -4.470417 4.2108e+06
-12.2399 7.195489 -4.490614 4.2108e+06
-12.2399 7.792191 -4.510812 4.2108e+06
-12.2399 8.388891 -4.531017 4.2108e+06
-12.2399 8.985596 -4.551214 4.2108e+06
-12.2399 9.582296 -4.571412 4.2108e+06
-12.2399 2.574124 -3.360888 4.2108e+06
-12.2399 3.250388 -3.38378 4.2108e+06
-12.2399 3.926651 -3.40667 4.2108e+06
-12.2399 4.602913 -3.429568 4.2108e+06
-12.2399 5.279175 -3.452459 4.2108e+06
-12.2399 5.955436 -3.475349 4.2108e+06
-12.2399 6.631698 -3.49824 4.2108e+06
-12.2399 7.307961 -3.521138 4.2108e+06
-12.2399 7.984221 -3.544029 4.2108e+06
-12.2399 8.660483 -3.56692 4.2108e+06
-12.2399 9.336744 -3.589819 4.2108e+06
-12.2399 10.01301 -3.612709 4.2108e+06
-12.2399 6.674733 -2.226942 4.2108e+06
-12.2399 7.455035 -2.253355 4.2108e+06
-12.2399 8.235338 -2.279777 4.2108e+06
-12.2399 9.015639 -2.30619 4.2108e+06
-12.2399 9.795942 -2.332601 4.2108e+06
