VERSION 0.7
FIELDS x y z rgb
SIZE 4 4 4 4
TYPE F F F F
COUNT 1 1 1 1
WIDTH 107
HEIGHT 1
VIEWPOINT 0 0 0 1 0 0 0
POINTS 107
DATA ascii 
-10.0616 9.961707 -5.21 4.2108e+06
-10.08799 10.53404 -5.21 4.2108e+06
-10.11454 11.10971 -5.21 4.2108e+06
-9.645262 9.637309 -4.524906 4.2108e+06
-9.06356 9.637309 -5.017608 4.2108e+06
-8.849388 9.961707 -5.21 4.2108e+06
-8.872261 10.53404 -5.21 4.2108e+06
-8.895266 11.10971 -5.21 4.2108e+06
-8.918406 11.68874 -5.21 4.2108e+06
-8.941689 12.27117 -5.21 4.2108e+06
-8.965101 12.85701 -5.21 4.2108e+06
-8.988651 13.44631 -5.21 4.2108e+06
-9.012341 14.03909 -5.21 4.2108e+06
-9.036177 14.63539 -5.21 4.2108e+06
-9.06015 15.23522 -5.21 4.2108e+06
-9.084263 15.83863 -5.21 4.2108e+06
-9.10853 16.44566 -5.21 4.2108e+06
-9.132933 17.05632 -5.21 4.2108e+06
-9.542913 9.637309 -3.291363 4.2108e+06
-8.879045 9.637309 -3.955896 4.2108e+06
-8.310607 9.637309 -4.524905 4.2108e+06
-7.818398 9.637309 -5.017608 4.2108e+06
-7.637175 9.961707 -5.21 4.2108e+06
-7.656528 10.53404 -5.21 4.2108e+06
-7.675995 11.10971 -5.21 4.2108e+06
-7.695575 11.68874 -5.21 4.2108e+06
-7.715277 12.27117 -5.21 4.2108e+06
-7.735086 12.85701 -5.21 4.2108e+06
-7.755013 13.44631 -5.21 4.2108e+06
-7.775057 14.03909 -5.21 4.2108e+06
-7.795228 14.63539 -5.21 4.2108e+06
-7.815511 15.23522 -5.21 4.2108e+06
-7.835916 15.83863 -5.21 4.2108e+06
-7.856449 16.44566 -5.21 4.2108e+06
-7.877098 17.05632 -5.21 4.2108e+06
-8.626896 9.637309 -2.505045 4.2108e+06
-7.984198 9.637309 -3.291363 4.2108e+06
-7.441034 9.637309 -3.955896 4.2108e+06
-6.975948 9.637309 -4.524906 4.2108e+06
-6.573234 9.637309 -5.017607 4.2108e+06
-6.42496 9.961707 -5.21 4.2108e+06
-6.440794 10.53404 -5.21 4.2108e+06
-6.456721 11.10971 -5.21 4.2108e+06
-6.472741 11.68874 -5.21 4.2108e+06
-6.48886 12.27117 -5.21 4.2108e+06
-6.505068 12.85701 -5.21 4.2108e+06
-6.521372 13.44631 -5.21 4.2108e+06
-6.537772 14.03909 -5.21 4.2108e+06
-6.554276 14.63539 -5.21 4.2108e+06
-6.570871 15.23522 -5.21 4.2108e+06
-6.587564 15.83863 -5.21 4.2108e+06
-6.604365 16.44566 -5.21 4.2108e+06
-6.62126 17.05632 -5.21 4.2108e+06
-6.925364 9.637309 -2.505044 4.2108e+06
-6.425488 9.637309 -3.291363 4.2108e+06
-6.003027 9.637309 -3.955896 4.2108e+06
-5.641294 9.637309 -4.524906 4.2108e+06
-5.328071 9.637309 -5.017607 4.2108e+06
-5.212747 9.961707 -5.21 4.2108e+06
-5.225063 10.53404 -5.21 4.2108e+06
-5.23745 11.10971 -5.21 4.2108e+06
-5.24991 11.68874 -5.21 4.2108e+06
-5.262447 12.27117 -5.21 4.2108e+06
-5.275054 12.85701 -5.21 4.2108e+06
-5.287735 13.44631 -5.21 4.2108e+06
-5.30049 14.03909 -5.21 4.2108e+06
-5.313325 14.63539 -5.21 4.2108e+06
-5.326233 15.23522 -5.21 4.2108e+06
-5.339217 15.83863 -5.21 4.2108e+06
-5.352284 16.44566 -5.21 4.2108e+06
-5.365425 17.05632 -5.21 4.2108e+06
-5.223833 9.637309 -2.505045 4.2108e+06
-4.866777 9.637309 -3.291364 4.2108e+06
-4.565021 9.637309 -3.955896 4.2108e+06
-4.306639 9.637309 -4.524905 4.2108e+06
-4.082909 9.637309 -5.017607 4.2108e+06
-4.000534 9.961707 -5.21 4.2108e+06
-4.009331 10.53404 -5.21 4.2108e+06
-4.018179 11.10971 -5.21 4.2108e+06
-4.02708 11.68874 -5.21 4.2108e+06
-4.036034 12.27117 -5.21 4.2108e+06
-4.045039 12.85701 -5.21 4.2108e+06
-4.054096 13.44631 -5.21 4.2108e+06
-4.063208 14.03909 -5.21 4.2108e+06
-4.072376 14.63539 -5.21 4.2108e+06
-4.081596 15.23522 -5.21 4.2108e+06
-4.09087 15.83863 -5.21 4.2108e+06
-4.100204 16.44566 -5.21 4.2108e+06
-4.10959 17.05632 -5.21 4.2108e+06
-3.522298 9.637309 -2.505045 4.2108e+06
-3.308066 9.637309 -3.291363 4.2108e+06
-3.127011 9.637309 -3.955897 4.2108e+06
-2.971983 9.637309 -4.524905 4.2108e+06
-2.837744 9.637309 -5.017608 4.2108e+06
-2.78832 9.961707 -5.21 4.2108e+06
-2.793598 10.53404 -5.21 4.2108e+06
-2.798907 11.10971 -5.21 4.2108e+06
-2.804247 11.68874 -5.21 4.2108e+06
-2.80962 12.27117 -5.21 4.2108e+06
-2.815023 12.85701 -5.21 4.2108e+06
-2.820457 13.44631 -5.21 4.2108e+06
-2.825924 14.03909 -5.21 4.2108e+06
-2.831425 14.63539 -5.21 4.2108e+06
-2.836957 15.23522 -5.21 4.2108e+06
-2.842522 15.83863 -5.21 4.2108e+06
-2.848122 16.44566 -5.21 4.2108e+06
-2.853753 17.05632 -5.21 4.2108e+06
