VERSION 0.7
FIELDS x y z
SIZE 4 4 4
TYPE F F F
COUNT 1 1 1
WIDTH 149
HEIGHT 1
VIEWPOINT 0 0 0 1 0 0 0
POINTS 149
DATA ascii 
-2.462978 0.6445186 -1.94
-2.464164 0.7912701 -1.94
-2.465351 0.9382552 -1.94
-2.466541 1.085474 -1.94
-2.467732 1.232927 -1.94
-2.468926 1.380615 -1.94
-2.470121 1.528539 -1.94
-2.320789 0.6445186 -1.94
-2.321862 0.7912701 -1.94
-2.322937 0.9382552 -1.94
-2.324013 1.085474 -1.94
-2.325091 1.232927 -1.94
-2.326171 1.380615 -1.94
-2.327252 1.528539 -1.94
-2.178601 0.6445186 -1.94
-2.179561 0.7912701 -1.94
-2.180522 0.9382552 -1.94
-2.181486 1.085474 -1.94
-2.18245 1.232927 -1.94
-2.183416 1.380615 -1.94
-2.184384 1.528539 -1.94
-2.036413 0.6445186 -1.94
-2.03726 0.7912701 -1.94
-2.038108 0.9382552 -1.94
-2.038958 1.085474 -1.94
-2.039809 1.232927 -1.94
-2.040661 1.380615 -1.94
-2.041515 1.528539 -1.94
-1.894224 0.6445187 -1.94
-1.894958 0.7912701 -1.94
-1.895694 0.9382552 -1.94
-1.89643 1.085474 -1.94
-1.897168 1.232927 -1.94
-1.897906 1.380615 -1.94
-1.898646 1.528539 -1.94
-1.752036 0.6445186 -1.94
-1.752657 0.7912701 -1.94
-1.753279 0.9382552 -1.94
-1.753902 1.085474 -1.94
-1.754526 1.232927 -1.94
-1.755152 1.380615 -1.94
-1.755778 1.528539 -1.94
-1.609848 0.6445186 -1.94
-1.610356 0.7912701 -1.94
-1.610865 0.9382552 -1.94
-1.611375 1.085474 -1.94
-1.611885 1.232927 -1.94
-1.612397 1.380615 -1.94
-1.612909 1.528539 -1.94
-1.043294 -0.137458 -1.72
-1.043352 0.0132359 -1.72
-1.04341 0.1641684 -1.72
-1.043468 0.3153399 -1.72
-1.043526 0.4667515 -1.72
-1.043585 0.618403 -1.72
-1.043643 0.7702955 -1.72
-0.8967059 -0.137458 -1.72
-0.8966479 0.0132359 -1.72
-0.8965899 0.1641684 -1.72
-0.8965317 0.3153399 -1.72
-0.8964734 0.4667515 -1.72
-0.8964151 0.618403 -1.72
-0.8963566 0.7702955 -1.72
-0.750118 -0.137458 -1.72
-0.749944 0.01323578 -1.72
-0.7497698 0.1641683 -1.72
-0.7495953 0.3153398 -1.72
-0.7494205 0.4667515 -1.72
-0.7492455 0.618403 -1.72
-0.7490702 0.7702955 -1.72
-0.6035304 -0.137458 -1.72
-0.6032405 0.01323602 -1.72
-0.6029501 0.1641683 -1.72
-0.6026592 0.3153398 -1.72
-0.6023679 0.4667514 -1.72
-0.6020762 0.618403 -1.72
-0.601784 0.7702954 -1.72
-0.4569424 -0.1374581 -1.72
-0.4565365 0.0132359 -1.72
-0.45613 0.1641684 -1.72
-0.4557229 0.3153399 -1.72
-0.4553151 0.4667515 -1.72
-0.4549066 0.6184031 -1.72
-0.4544975 0.7702954 -1.72
-0.3103548 -0.1374581 -1.72
-0.309833 0.01323602 -1.72
-0.3093103 0.1641683 -1.72
-0.3087868 0.3153399 -1.72
-0.3082625 0.4667515 -1.72
-0.3077374 0.6184031 -1.72
-0.3072113 0.7702954 -1.72
-0.1637669 -0.137458 -1.72
-0.1631291 0.0132359 -1.72
-0.1624903 0.1641683 -1.72
-0.1618505 0.3153398 -1.72
-0.1612096 0.4667514 -1.72
-0.1605677 0.618403 -1.72
-0.1599248 0.7702954 -1.72
0.1616582 -0.4241501 -0.5
0.1625535 -0.2451721 -0.5
0.1634502 -0.06591082 -0.5
0.1643484 0.1136343 -0.5
0.1652478 0.2934648 -0.5
0.1661487 0.4735802 -0.5
0.3357593 -0.4241503 -0.5
0.3367921 -0.2451721 -0.5
0.3378268 -0.06591094 -0.5
0.3388631 0.1136343 -0.5
0.3399011 0.2934648 -0.5
0.3409406 0.4735802 -0.5
0.05548322 2.088892 -2.228956
0.0426712 2.219968 -2.308539
0.04241467 2.359529 -2.314767
0.05800164 2.516379 -2.228656
0.1834601 1.943118 -2.269327
0.1597638 2.069378 -2.396234
0.149762 2.199768 -2.45241
0.1485004 2.335107 -2.46352
0.1565603 2.47915 -2.426685
0.1838653 2.646107 -2.291028
0.2955406 1.932983 -2.378358
0.2741874 2.059429 -2.481514
0.2642285 2.188593 -2.532001
0.2624608 2.32178 -2.544694
0.2691735 2.461916 -2.518355
0.2891817 2.616466 -2.430941
0.473349 1.807961 -2.187303
0.4171973 1.928496 -2.426628
0.3947434 2.054361 -2.524959
0.3839943 2.18265 -2.574334
0.3818142 2.31468 -2.587936
0.3884078 2.453146 -2.565
0.4079775 2.604349 -2.488133
0.5486376 1.928257 -2.429198
0.5224199 2.053339 -2.533718
0.5100802 2.181118 -2.585245
0.5075096 2.312776 -2.599535
0.5148933 2.451083 -2.575974
0.5374144 2.602901 -2.494966
0.6976354 1.933782 -2.369762
0.6612303 2.057034 -2.502049
0.6457371 2.184538 -2.560888
0.6427712 2.316673 -2.575799
0.6525509 2.456696 -2.546122
0.685733 2.615662 -2.434732
0.8262618 2.070109 -2.389966
0.8006098 2.1962 -2.477821
0.7972515 2.330218 -2.493301
0.817047 2.477813 -2.433794
