VERSION 0.7
FIELDS x y z rgb
SIZE 4 4 4 4
TYPE F F F F
COUNT 1 1 1 1
WIDTH 124
HEIGHT 1
VIEWPOINT 0 0 0 1 0 0 0
POINTS 124
DATA ascii 
-9.707392 9.697163 -4.474307 4.2108e+06
-9.121527 9.697163 -4.970538 4.2108e+06
-8.849388 9.961707 -5.21 4.2108e+06
-8.872261 10.53404 -5.21 4.2108e+06
-8.895266 11.10971 -5.21 4.2108e+06
-8.918406 11.68874 -5.21 4.2108e+06
-8.941689 12.27117 -5.21 4.2108e+06
-8.965101 12.85701 -5.21 4.2108e+06
-8.988651 13.44631 -5.21 4.2108e+06
-9.012341 14.03909 -5.21 4.2108e+06
-9.036177 14.63539 -5.21 4.2108e+06
-9.06015 15.23522 -5.21 4.2108e+06
-9.084263 15.83863 -5.21 4.2108e+06
-9.10853 16.44566 -5.21 4.2108e+06
-9.132933 17.05632 -5.21 4.2108e+06
-9.157484 17.67065 -5.21 4.2108e+06
-9.604311 9.697163 -3.23193 4.2108e+06
-8.935689 9.697163 -3.901222 4.2108e+06
-8.363178 9.697163 -4.474307 4.2108e+06
-7.867446 9.697163 -4.970538 4.2108e+06
-7.637175 9.961707 -5.21 4.2108e+06
-7.656528 10.53404 -5.21 4.2108e+06
-7.675995 11.10971 -5.21 4.2108e+06
-7.695575 11.68874 -5.21 4.2108e+06
-7.715277 12.27117 -5.21 4.2108e+06
-7.735086 12.85701 -5.21 4.2108e+06
-7.755013 13.44631 -5.21 4.2108e+06
-7.775057 14.03909 -5.21 4.2108e+06
-7.795228 14.63539 -5.21 4.2108e+06
-7.815511 15.23522 -5.21 4.2108e+06
-7.835916 15.83863 -5.21 4.2108e+06
-7.856449 16.44566 -5.21 4.2108e+06
-7.877098 17.05632 -5.21 4.2108e+06
-7.897872 17.67065 -5.21 4.2108e+06
-8.681733 9.697163 -2.439981 4.2108e+06
-8.034431 9.697163 -3.231929 4.2108e+06
-7.487379 9.697163 -3.901223 4.2108e+06
-7.018962 9.697163 -4.474307 4.2108e+06
-6.613363 9.697163 -4.970537 4.2108e+06
-6.42496 9.961707 -5.21 4.2108e+06
-6.440794 10.53404 -5.21 4.2108e+06
-6.456721 11.10971 -5.21 4.2108e+06
-6.472741 11.68874 -5.21 4.2108e+06
-6.48886 12.27117 -5.21 4.2108e+06
-6.505068 12.85701 -5.21 4.2108e+06
-6.521372 13.44631 -5.21 4.2108e+06
-6.537772 14.03909 -5.21 4.2108e+06
-6.554276 14.63539 -5.21 4.2108e+06
-6.570871 15.23522 -5.21 4.2108e+06
-6.587564 15.83863 -5.21 4.2108e+06
-6.604365 16.44566 -5.21 4.2108e+06
-6.62126 17.05632 -5.21 4.2108e+06
-6.638257 17.67065 -5.21 4.2108e+06
-6.968016 9.697163 -2.43998 4.2108e+06
-6.464559 9.697163 -3.23193 4.2108e+06
-6.039073 9.697163 -3.901222 4.2108e+06
-5.674749 9.697163 -4.474307 4.2108e+06
-5.359283 9.697163 -4.970537 4.2108e+06
-5.212747 9.961707 -5.21 4.2108e+06
-5.225063 10.53404 -5.21 4.2108e+06
-5.23745 11.10971 -5.21 4.2108e+06
-5.24991 11.68874 -5.21 4.2108e+06
-5.262447 12.27117 -5.21 4.2108e+06
-5.275054 12.85701 -5.21 4.2108e+06
-5.287735 13.44631 -5.21 4.2108e+06
-5.30049 14.03909 -5.21 4.2108e+06
-5.313325 14.63539 -5.21 4.2108e+06
-5.326233 15.23522 -5.21 4.2108e+06
-5.339217 15.83863 -5.21 4.2108e+06
-5.352284 16.44566 -5.21 4.2108e+06
-5.365425 17.05632 -5.21 4.2108e+06
-5.378644 17.67065 -5.21 4.2108e+06
-5.254298 9.697163 -2.439981 4.2108e+06
-4.894686 9.697163 -3.23193 4.2108e+06
-4.590767 9.697163 -3.901222 4.2108e+06
-4.330536 9.697163 -4.474306 4.2108e+06
-4.105203 9.697163 -4.970537 4.2108e+06
-4.000534 9.961707 -5.21 4.2108e+06
-4.009331 10.53404 -5.21 4.2108e+06
-4.018179 11.10971 -5.21 4.2108e+06
-4.02708 11.68874 -5.21 4.2108e+06
-4.036034 12.27117 -5.21 4.2108e+06
-4.045039 12.85701 -5.21 4.2108e+06
-4.054096 13.44631 -5.21 4.2108e+06
-4.063208 14.03909 -5.21 4.2108e+06
-4.072376 14.63539 -5.21 4.2108e+06
-4.081596 15.23522 -5.21 4.2108e+06
-4.09087 15.83863 -5.21 4.2108e+06
-4.100204 16.44566 -5.21 4.2108e+06
-4.10959 17.05632 -5.21 4.2108e+06
-4.119032 17.67065 -5.21 4.2108e+06
-3.540578 9.697163 -2.439981 4.2108e+06
-3.324811 9.697163 -3.23193 4.2108e+06
-3.142459 9.697163 -3.901222 4.2108e+06
-2.986321 9.697163 -4.474307 4.2108e+06
-2.851121 9.697163 -4.970538 4.2108e+06
-2.78832 9.961707 -5.21 4.2108e+06
-2.793598 10.53404 -5.21 4.2108e+06
-2.798907 11.10971 -5.21 4.2108e+06
-2.804247 11.68874 -5.21 4.2108e+06
-2.80962 12.27117 -5.21 4.2108e+06
-2.815023 12.85701 -5.21 4.2108e+06
-2.820457 13.44631 -5.21 4.2108e+06
-2.825924 14.03909 -5.21 4.2108e+06
-2.831425 14.63539 -5.21 4.2108e+06
-2.836957 15.23522 -5.21 4.2108e+06
-2.842522 15.83863 -5.21 4.2108e+06
-2.848122 16.44566 -5.21 4.2108e+06
-2.853753 17.05632 -5.21 4.2108e+06
-2.859419 17.67065 -5.21 4.2108e+06
-1.826858 9.697163 -2.439981 4.2108e+06
-1.754935 9.697163 -3.23193 4.2108e+06
-1.719711 9.994247 -3.629846 4.2108e+06
-1.719711 10.66906 -3.652687 4.2108e+06
-1.719711 11.34387 -3.675528 4.2108e+06
-1.719711 12.01868 -3.698377 4.2108e+06
-1.719711 12.69348 -3.72122 4.2108e+06
-1.719711 13.36829 -3.74406 4.2108e+06
-1.719711 14.0431 -3.766902 4.2108e+06
-1.719711 14.71791 -3.789752 4.2108e+06
-1.719711 15.39272 -3.812592 4.2108e+06
-1.719711 16.06753 -3.835434 4.2108e+06
-1.719711 16.74235 -3.858275 4.2108e+06
-1.719711 17.41715 -3.881125 4.2108e+06
