VERSION 0.7
FIELDS x y z rgb
SIZE 4 4 4 4
TYPE F F F F
COUNT 1 1 1 1
WIDTH 149
HEIGHT 1
VIEWPOINT 0 0 0 1 0 0 0
POINTS 149
DATA ascii 
-21.18878 0.7151346 -5.21 4.2108e+06
-21.24471 1.234974 -5.21 4.2108e+06
-21.30097 1.757699 -5.21 4.2108e+06
-21.35752 2.28333 -5.21 4.2108e+06
-21.41439 2.811895 -5.21 4.2108e+06
-21.47158 3.343418 -5.21 4.2108e+06
-21.52911 3.877924 -5.21 4.2108e+06
-21.58694 4.415436 -5.21 4.2108e+06
-21.6451 4.955978 -5.21 4.2108e+06
-21.70358 5.49958 -5.21 4.2108e+06
-20.03342 0.7151346 -5.21 4.2108e+06
-20.08616 1.234974 -5.21 4.2108e+06
-20.1392 1.757699 -5.21 4.2108e+06
-20.19253 2.28333 -5.21 4.2108e+06
-20.24614 2.811895 -5.21 4.2108e+06
-20.30006 3.343418 -5.21 4.2108e+06
-20.3543 3.877924 -5.21 4.2108e+06
-20.40883 4.415436 -5.21 4.2108e+06
-20.46367 4.955978 -5.21 4.2108e+06
-20.51881 5.49958 -5.21 4.2108e+06
-20.57429 6.046272 -5.21 4.2108e+06
-20.63006 6.596069 -5.21 4.2108e+06
-20.68616 7.149004 -5.21 4.2108e+06
-20.74259 7.705108 -5.21 4.2108e+06
-20.79932 8.2644 -5.21 4.2108e+06
-18.87806 0.7151346 -5.21 4.2108e+06
-18.9276 1.234974 -5.21 4.2108e+06
-18.97743 1.757699 -5.21 4.2108e+06
-19.02752 2.283329 -5.21 4.2108e+06
-19.07789 2.811895 -5.21 4.2108e+06
-19.12854 3.343418 -5.21 4.2108e+06
-19.17949 3.877924 -5.21 4.2108e+06
-19.23072 4.415436 -5.21 4.2108e+06
-19.28223 4.955978 -5.21 4.2108e+06
-19.33403 5.49958 -5.21 4.2108e+06
-19.38615 6.046272 -5.21 4.2108e+06
-19.43854 6.596069 -5.21 4.2108e+06
-19.49123 7.149003 -5.21 4.2108e+06
-19.54425 7.705108 -5.21 4.2108e+06
-19.59755 8.2644 -5.21 4.2108e+06
-17.7227 0.7151346 -5.21 4.2108e+06
-17.76904 1.234974 -5.21 4.2108e+06
-17.81566 1.757699 -5.21 4.2108e+06
-17.86252 2.283329 -5.21 4.2108e+06
-17.90964 2.811895 -5.21 4.2108e+06
-17.95702 3.343418 -5.21 4.2108e+06
-18.00469 3.877925 -5.21 4.2108e+06
-18.05261 4.415436 -5.21 4.2108e+06
-18.1008 4.955978 -5.21 4.2108e+06
-18.14926 5.49958 -5.21 4.2108e+06
-18.19801 6.046273 -5.21 4.2108e+06
-18.24702 6.596068 -5.21 4.2108e+06
-18.29632 7.149003 -5.21 4.2108e+06
-18.34591 7.705108 -5.21 4.2108e+06
-18.39577 8.2644 -5.21 4.2108e+06
-16.56734 0.7151346 -5.21 4.2108e+06
-16.61049 1.234974 -5.21 4.2108e+06
-16.65389 1.757699 -5.21 4.2108e+06
-16.69752 2.28333 -5.21 4.2108e+06
-16.74139 2.811895 -5.21 4.2108e+06
-16.78551 3.343418 -5.21 4.2108e+06
-16.82988 3.877924 -5.21 4.2108e+06
-16.8745 4.415436 -5.21 4.2108e+06
-16.91936 4.955978 -5.21 4.2108e+06
-16.96448 5.49958 -5.21 4.2108e+06
-17.00987 6.046272 -5.21 4.2108e+06
-17.05551 6.596068 -5.21 4.2108e+06
-17.1014 7.149003 -5.21 4.2108e+06
-17.14757 7.705108 -5.21 4.2108e+06
-17.19399 8.2644 -5.21 4.2108e+06
-15.41198 0.7151346 -5.21 4.2108e+06
-15.45193 1.234974 -5.21 4.2108e+06
-15.49212 1.757699 -5.21 4.2108e+06
-15.53252 2.28333 -5.21 4.2108e+06
-15.57314 2.811895 -5.21 4.2108e+06
-15.61399 3.343418 -5.21 4.2108e+06
-15.65508 3.877925 -5.21 4.2108e+06
-15.69639 4.415436 -5.21 4.2108e+06
-15.73793 4.955978 -5.21 4.2108e+06
-15.7797 5.49958 -5.21 4.2108e+06
-15.82173 6.046272 -5.21 4.2108e+06
-15.86399 6.596068 -5.21 4.2108e+06
-15.90648 7.149004 -5.21 4.2108e+06
-15.94923 7.705108 -5.21 4.2108e+06
-15.99221 8.2644 -5.21 4.2108e+06
-14.25663 0.7151346 -5.21 4.2108e+06
-14.29338 1.234974 -5.21 4.2108e+06
-14.33035 1.757699 -5.21 4.2108e+06
-14.36752 2.28333 -5.21 4.2108e+06
-14.40489 2.811895 -5.21 4.2108e+06
-14.44247 3.343418 -5.21 4.2108e+06
-14.48027 3.877924 -5.21 4.2108e+06
-14.51828 4.415436 -5.21 4.2108e+06
-14.55649 4.955978 -5.21 4.2108e+06
-14.59493 5.49958 -5.21 4.2108e+06
-14.63359 6.046272 -5.21 4.2108e+06
-14.67247 6.596068 -5.21 4.2108e+06
-14.71156 7.149004 -5.21 4.2108e+06
-14.75089 7.705108 -5.21 4.2108e+06
-14.79044 8.2644 -5.21 4.2108e+06
-13.73993 1.232735 -4.892644 4.2108e+06
-13.73993 1.780073 -4.911178 4.2108e+06
-13.73993 2.32741 -4.929705 4.2108e+06
-13.73993 2.874748 -4.948231 4.2108e+06
-13.73993 3.422087 -4.966757 4.2108e+06
-13.73993 3.969426 -4.985291 4.2108e+06
-13.73993 4.516764 -5.003817 4.2108e+06
-13.73993 5.064101 -5.022344 4.2108e+06
-13.73993 5.611439 -5.040871 4.2108e+06
-13.73993 6.158777 -5.059404 4.2108e+06
-13.73993 6.706114 -5.07793 4.2108e+06
-13.73993 7.253452 -5.096457 4.2108e+06
-13.73993 7.800789 -5.11499 4.2108e+06
-13.73993 8.348128 -5.133517 4.2108e+06
-13.73993 1.227759 -4.18766 4.2108e+06
-13.73993 1.832712 -4.208144 4.2108e+06
-13.73993 2.437663 -4.228621 4.2108e+06
-13.73993 3.042617 -4.249098 4.2108e+06
-13.73993 3.64757 -4.269575 4.2108e+06
-13.73993 4.252523 -4.290059 4.2108e+06
-13.73993 4.857475 -4.310535 4.2108e+06
-13.73993 5.462426 -4.331013 4.2108e+06
-13.73993 6.067379 -4.35149 4.2108e+06
-13.73993 6.672333 -4.371974 4.2108e+06
-13.73993 7.277284 -4.39245 4.2108e+06
-13.73993 7.882236 -4.412927 4.2108e+06
-13.73993 8.487187 -4.433411 4.2108e+06
-13.73993 1.221613 -3.316795 4.2108e+06
-13.73993 1.897737 -3.33969 4.2108e+06
-13.73993 2.573859 -3.362576 4.2108e+06
-13.73993 3.249983 -3.385462 4.2108e+06
-13.73993 3.926108 -3.408348 4.2108e+06
-13.73993 4.602232 -3.431241 4.2108e+06
-13.73993 5.278355 -3.454127 4.2108e+06
-13.73993 5.954476 -3.477014 4.2108e+06
-13.73993 6.6306 -3.4999 4.2108e+06
-13.73993 7.306726 -3.522793 4.2108e+06
-13.73993 7.982847 -3.545679 4.2108e+06
-13.73993 8.658971 -3.568564 4.2108e+06
-13.73993 1.213829 -2.213701 4.2108e+06
-13.73993 1.980102 -2.239648 4.2108e+06
-13.73993 2.746373 -2.265585 4.2108e+06
-13.73993 3.512648 -2.291523 4.2108e+06
-13.73993 4.278923 -2.31746 4.2108e+06
-13.73993 5.045197 -2.343406 4.2108e+06
-13.73993 5.81147 -2.369344 4.2108e+06
-13.73993 6.577741 -2.395281 4.2108e+06
-13.73993 7.344014 -2.421219 4.2108e+06
-13.73993 8.11029 -2.447165 4.2108e+06
