VERSION 0.7
FIELDS x y z rgb
SIZE 4 4 4 4
TYPE F F F F
COUNT 1 1 1 1
WIDTH 123
HEIGHT 1
VIEWPOINT 0 0 0 1 0 0 0
POINTS 123
DATA ascii 
-11.24407 9.392668 -5.21 4.2108e+06
-11.27382 9.961707 -5.21 4.2108e+06
-11.30372 10.53404 -5.21 4.2108e+06
-11.33381 11.10971 -5.21 4.2108e+06
-11.36407 11.68874 -5.21 4.2108e+06
-11.39452 12.27117 -5.21 4.2108e+06
-11.2992 9.284062 -4.278574 4.2108e+06
-10.55682 9.284062 -4.823533 4.2108e+06
-10.03535 9.392667 -5.21 4.2108e+06
-10.0616 9.961707 -5.21 4.2108e+06
-10.08799 10.53404 -5.21 4.2108e+06
-10.11454 11.10971 -5.21 4.2108e+06
-10.14124 11.68874 -5.21 4.2108e+06
-10.1681 12.27117 -5.21 4.2108e+06
-10.19512 12.85701 -5.21 4.2108e+06
-10.22229 13.44631 -5.21 4.2108e+06
-10.24962 14.03909 -5.21 4.2108e+06
-10.27713 14.63539 -5.21 4.2108e+06
-10.30479 15.23522 -5.21 4.2108e+06
-10.33261 15.83863 -5.21 4.2108e+06
-10.36061 16.44566 -5.21 4.2108e+06
-10.38877 17.05632 -5.21 4.2108e+06
-10.67338 9.284062 -3.64213 4.2108e+06
-9.92197 9.284062 -4.278574 4.2108e+06
-9.278576 9.284062 -4.823534 4.2108e+06
-8.82664 9.392667 -5.21 4.2108e+06
-8.849388 9.961707 -5.21 4.2108e+06
-8.872261 10.53404 -5.21 4.2108e+06
-8.895266 11.10971 -5.21 4.2108e+06
-8.918406 11.68874 -5.21 4.2108e+06
-8.941689 12.27117 -5.21 4.2108e+06
-8.965101 12.85701 -5.21 4.2108e+06
-8.988651 13.44631 -5.21 4.2108e+06
-9.012341 14.03909 -5.21 4.2108e+06
-9.036177 14.63539 -5.21 4.2108e+06
-9.06015 15.23522 -5.21 4.2108e+06
-9.084263 15.83863 -5.21 4.2108e+06
-9.10853 16.44566 -5.21 4.2108e+06
-9.132933 17.05632 -5.21 4.2108e+06
-9.932869 9.284062 -2.889048 4.2108e+06
-9.180553 9.284062 -3.642129 4.2108e+06
-8.544746 9.284062 -4.278574 4.2108e+06
-8.000334 9.284062 -4.823533 4.2108e+06
-7.617927 9.392667 -5.21 4.2108e+06
-7.637175 9.961707 -5.21 4.2108e+06
-7.656528 10.53404 -5.21 4.2108e+06
-7.675995 11.10971 -5.21 4.2108e+06
-7.695575 11.68874 -5.21 4.2108e+06
-7.715277 12.27117 -5.21 4.2108e+06
-7.735086 12.85701 -5.21 4.2108e+06
-7.755013 13.44631 -5.21 4.2108e+06
-7.775057 14.03909 -5.21 4.2108e+06
-7.795228 14.63539 -5.21 4.2108e+06
-7.815511 15.23522 -5.21 4.2108e+06
-7.835916 15.83863 -5.21 4.2108e+06
-7.856449 16.44566 -5.21 4.2108e+06
-7.877098 17.05632 -5.21 4.2108e+06
-8.303254 9.284062 -2.889049 4.2108e+06
-7.687722 9.284062 -3.642129 4.2108e+06
-7.167517 9.284062 -4.278575 4.2108e+06
-6.722089 9.284062 -4.823533 4.2108e+06
-6.409211 9.392666 -5.21 4.2108e+06
-6.42496 9.961707 -5.21 4.2108e+06
-6.440794 10.53404 -5.21 4.2108e+06
-6.456721 11.10971 -5.21 4.2108e+06
-6.472741 11.68874 -5.21 4.2108e+06
-6.48886 12.27117 -5.21 4.2108e+06
-6.505068 12.85701 -5.21 4.2108e+06
-6.521372 13.44631 -5.21 4.2108e+06
-6.537772 14.03909 -5.21 4.2108e+06
-6.554276 14.63539 -5.21 4.2108e+06
-6.570871 15.23522 -5.21 4.2108e+06
-6.587564 15.83863 -5.21 4.2108e+06
-6.604365 16.44566 -5.21 4.2108e+06
-6.62126 17.05632 -5.21 4.2108e+06
-6.673643 9.284062 -2.889048 4.2108e+06
-6.194895 9.284062 -3.64213 4.2108e+06
-5.790291 9.284062 -4.278574 4.2108e+06
-5.443848 9.284062 -4.823534 4.2108e+06
-5.200498 9.392666 -5.21 4.2108e+06
-5.212747 9.961707 -5.21 4.2108e+06
-5.225063 10.53404 -5.21 4.2108e+06
-5.23745 11.10971 -5.21 4.2108e+06
-5.24991 11.68874 -5.21 4.2108e+06
-5.262447 12.27117 -5.21 4.2108e+06
-5.275054 12.85701 -5.21 4.2108e+06
-5.287735 13.44631 -5.21 4.2108e+06
-5.30049 14.03909 -5.21 4.2108e+06
-5.313325 14.63539 -5.21 4.2108e+06
-5.326233 15.23522 -5.21 4.2108e+06
-5.339217 15.83863 -5.21 4.2108e+06
-5.352284 16.44566 -5.21 4.2108e+06
-5.365425 17.05632 -5.21 4.2108e+06
-5.044032 9.284062 -2.889048 4.2108e+06
-4.702069 9.284062 -3.64213 4.2108e+06
-4.413066 9.284062 -4.278575 4.2108e+06
-4.165606 9.284062 -4.823533 4.2108e+06
-3.991785 9.392666 -5.21 4.2108e+06
-4.000534 9.961707 -5.21 4.2108e+06
-4.009331 10.53404 -5.21 4.2108e+06
-4.018179 11.10971 -5.21 4.2108e+06
-4.02708 11.68874 -5.21 4.2108e+06
-4.036034 12.27117 -5.21 4.2108e+06
-4.045039 12.85701 -5.21 4.2108e+06
-4.054096 13.44631 -5.21 4.2108e+06
-4.063208 14.03909 -5.21 4.2108e+06
-4.072376 14.63539 -5.21 4.2108e+06
-4.081596 15.23522 -5.21 4.2108e+06
-4.09087 15.83863 -5.21 4.2108e+06
-4.100204 16.44566 -5.21 4.2108e+06
-4.10959 17.05632 -5.21 4.2108e+06
-3.414418 9.284062 -2.889048 4.2108e+06
-3.399709 9.964884 -2.966088 4.2108e+06
-3.399709 10.69387 -2.990763 4.2108e+06
-3.399709 11.42286 -3.015438 4.2108e+06
-3.399709 12.15185 -3.040114 4.2108e+06
-3.399709 12.88083 -3.064797 4.2108e+06
-3.399709 13.60982 -3.089472 4.2108e+06
-3.399709 14.33881 -3.114147 4.2108e+06
-3.399709 15.06779 -3.138824 4.2108e+06
-3.399709 15.79678 -3.163507 4.2108e+06
-3.399709 16.52576 -3.188182 4.2108e+06
-3.399709 17.25475 -3.212856 4.2108e+06
