VERSION 0.7
FIELDS x y z rgb
SIZE 4 4 4 4
TYPE F F F F
COUNT 1 1 1 1
WIDTH 135
HEIGHT 1
VIEWPOINT 0 0 0 1 0 0 0
POINTS 135
DATA ascii 
-17.95702 3.343418 -5.21 4.2108e+06
-18.00469 3.877924 -5.21 4.2108e+06
-18.05261 4.415436 -5.21 4.2108e+06
-18.1008 4.955978 -5.21 4.2108e+06
-18.14926 5.49958 -5.21 4.2108e+06
-18.19801 6.046273 -5.21 4.2108e+06
-18.24702 6.596068 -5.21 4.2108e+06
-18.29632 7.149003 -5.21 4.2108e+06
-18.34591 7.705107 -5.21 4.2108e+06
-18.39577 8.2644 -5.21 4.2108e+06
-18.44592 8.82691 -5.21 4.2108e+06
-18.49635 9.392667 -5.21 4.2108e+06
-18.5471 9.961707 -5.21 4.2108e+06
-18.59812 10.53404 -5.21 4.2108e+06
-18.64944 11.10971 -5.21 4.2108e+06
-16.78551 3.343418 -5.21 4.2108e+06
-16.82989 3.877924 -5.21 4.2108e+06
-16.8745 4.415436 -5.21 4.2108e+06
-16.91936 4.955978 -5.21 4.2108e+06
-16.96448 5.49958 -5.21 4.2108e+06
-17.00987 6.046272 -5.21 4.2108e+06
-17.05551 6.596068 -5.21 4.2108e+06
-17.1014 7.149003 -5.21 4.2108e+06
-17.14757 7.705107 -5.21 4.2108e+06
-17.19399 8.2644 -5.21 4.2108e+06
-17.24068 8.82691 -5.21 4.2108e+06
-17.28764 9.392667 -5.21 4.2108e+06
-17.33488 9.961707 -5.21 4.2108e+06
-17.38239 10.53404 -5.21 4.2108e+06
-17.43017 11.10971 -5.21 4.2108e+06
-15.61399 3.343418 -5.21 4.2108e+06
-15.65508 3.877924 -5.21 4.2108e+06
-15.69639 4.415436 -5.21 4.2108e+06
-15.73793 4.955978 -5.21 4.2108e+06
-15.7797 5.49958 -5.21 4.2108e+06
-15.82173 6.046272 -5.21 4.2108e+06
-15.86399 6.596068 -5.21 4.2108e+06
-15.90648 7.149004 -5.21 4.2108e+06
-15.94923 7.705108 -5.21 4.2108e+06
-15.99221 8.2644 -5.21 4.2108e+06
-16.03544 8.82691 -5.21 4.2108e+06
-16.07892 9.392667 -5.21 4.2108e+06
-16.12267 9.961708 -5.21 4.2108e+06
-16.16666 10.53404 -5.21 4.2108e+06
-16.2109 11.10971 -5.21 4.2108e+06
-17.89379 3.209712 -3.553182 4.2108e+06
-14.44247 3.343418 -5.21 4.2108e+06
-14.48027 3.877924 -5.21 4.2108e+06
-14.51828 4.415436 -5.21 4.2108e+06
-14.5565 4.955978 -5.21 4.2108e+06
-14.59493 5.49958 -5.21 4.2108e+06
-14.6336 6.046272 -5.21 4.2108e+06
-14.67247 6.596068 -5.21 4.2108e+06
-14.71156 7.149004 -5.21 4.2108e+06
-14.7509 7.705108 -5.21 4.2108e+06
-14.79044 8.2644 -5.21 4.2108e+06
-14.83021 8.82691 -5.21 4.2108e+06
-14.87021 9.392667 -5.21 4.2108e+06
-14.91046 9.961707 -5.21 4.2108e+06
-14.95092 10.53404 -5.21 4.2108e+06
-14.99163 11.10971 -5.21 4.2108e+06
-16.42215 3.209712 -3.553182 4.2108e+06
-13.27095 3.343418 -5.21 4.2108e+06
-13.30547 3.877924 -5.21 4.2108e+06
-13.34017 4.415436 -5.21 4.2108e+06
-13.37506 4.955978 -5.21 4.2108e+06
-13.41015 5.49958 -5.21 4.2108e+06
-13.44546 6.046272 -5.21 4.2108e+06
-13.48095 6.596068 -5.21 4.2108e+06
-13.51664 7.149004 -5.21 4.2108e+06
-13.55256 7.705107 -5.21 4.2108e+06
-13.58866 8.2644 -5.21 4.2108e+06
-13.62497 8.82691 -5.21 4.2108e+06
-13.6615 9.392667 -5.21 4.2108e+06
-13.69824 9.961707 -5.21 4.2108e+06
-13.73519 10.53404 -5.21 4.2108e+06
-13.77235 11.10971 -5.21 4.2108e+06
-14.95052 3.209712 -3.553182 4.2108e+06
-12.09943 3.343418 -5.21 4.2108e+06
-12.13066 3.877924 -5.21 4.2108e+06
-12.16206 4.415436 -5.21 4.2108e+06
-12.19363 4.955978 -5.21 4.2108e+06
-12.22538 5.49958 -5.21 4.2108e+06
-12.25732 6.046272 -5.21 4.2108e+06
-12.28943 6.596069 -5.21 4.2108e+06
-12.32173 7.149003 -5.21 4.2108e+06
-12.35422 7.705107 -5.21 4.2108e+06
-12.38688 8.2644 -5.21 4.2108e+06
-12.41974 8.82691 -5.21 4.2108e+06
-12.45278 9.392667 -5.21 4.2108e+06
-12.48603 9.961708 -5.21 4.2108e+06
-12.51946 10.53404 -5.21 4.2108e+06
-12.55308 11.10971 -5.21 4.2108e+06
-13.47888 3.209712 -3.553183 4.2108e+06
-11.11987 3.383195 -5.087012 4.2108e+06
-11.11987 3.920595 -5.105208 4.2108e+06
-11.11987 4.457995 -5.123399 4.2108e+06
-11.11987 4.995395 -5.141589 4.2108e+06
-11.11987 5.532795 -5.159779 4.2108e+06
-11.11987 6.070196 -5.177976 4.2108e+06
-11.11987 6.607595 -5.196166 4.2108e+06
-11.12681 7.149004 -5.21 4.2108e+06
-11.15588 7.705107 -5.21 4.2108e+06
-11.18511 8.2644 -5.21 4.2108e+06
-11.2145 8.82691 -5.21 4.2108e+06
-11.24407 9.392668 -5.21 4.2108e+06
-11.27382 9.961707 -5.21 4.2108e+06
-11.30373 10.53404 -5.21 4.2108e+06
-11.33381 11.10971 -5.21 4.2108e+06
-12.00725 3.209712 -3.553182 4.2108e+06
-11.11987 3.663621 -4.219946 4.2108e+06
-11.11987 4.272675 -4.240569 4.2108e+06
-11.11987 4.881729 -4.261185 4.2108e+06
-11.11987 5.490781 -4.2818 4.2108e+06
-11.11987 6.099835 -4.302416 4.2108e+06
-11.11987 6.708889 -4.323039 4.2108e+06
-11.11987 7.317942 -4.343655 4.2108e+06
-11.11987 7.926995 -4.36427 4.2108e+06
-11.11987 8.536048 -4.384893 4.2108e+06
-11.11987 9.145103 -4.405509 4.2108e+06
-11.11987 9.754157 -4.426125 4.2108e+06
-11.11987 10.36321 -4.44674 4.2108e+06
-11.11987 10.97227 -4.467363 4.2108e+06
-11.11987 3.327576 -3.062305 4.2108e+06
-11.11987 4.030332 -3.086092 4.2108e+06
-11.11987 4.733086 -3.109888 4.2108e+06
-11.11987 5.43584 -3.133676 4.2108e+06
-11.11987 6.138593 -3.157462 4.2108e+06
-11.11987 6.841347 -3.18125 4.2108e+06
-11.11987 7.544103 -3.205046 4.2108e+06
-11.11987 8.246855 -3.228834 4.2108e+06
-11.11987 8.94961 -3.252621 4.2108e+06
-11.11987 9.652363 -3.276416 4.2108e+06
-11.11987 10.35512 -3.300203 4.2108e+06
-11.11987 11.05787 -3.323991 4.2108e+06
